ncols         341
nrows         31
xllcorner     612351.73
yllcorner     5470123.83
cellsize      5
NODATA_value  -9999
33.27126 33.25823 33.24485 33.23087 33.21581 33.19863 33.17668 33.1441 33.23283 33.31668 33.46006 33.54383 33.63762 33.74754 33.87082 33.97586 34.08998 34.23052 34.2608 34.36506 34.47814 34.56502 34.63108 34.75718 34.82395 34.91897 35.0308 35.17221 35.22458 35.47224 35.98046 36.13588 36.14072 35.96331 36.07346 36.18922 36.21889 36.29251 36.51595 36.58768 36.63109 36.66036 36.5277 36.64161 36.42444 36.50977 36.31167 36.70582 36.48731 36.23403 36.4223 36.41579 35.54265 36.06799 36.80764 37.37923 37.27512 37.28023 37.91612 37.83733 37.8347 38.27912 38.87522 38.547 37.75859 38.34011 38.74019 38.63123 38.67681 39.04771 38.72014 38.68174 38.3025 38.61405 38.3438 38.64722 38.40211 38.29554 38.17146 38.69305 39.04895 38.99415 38.13583 37.81364 37.35267 36.52671 35.51546 34.86509 33.66271 33.00966 33.01208 33.01387 33.02089 33.03114 33.04343 33.05711 33.07181 33.08744 33.10373 33.12046 33.13751 33.15504 33.1738 33.1936 33.21419 33.2354 33.25706 33.27906 33.30135 33.32413 33.34729 33.37071 33.39425 33.41783 33.44138 33.46482 33.48804 33.51082 33.53304 -9999 -9999 -9999 -9999 -9999 -9999 -9999 -9999 -9999 -9999 -9999 -9999 -9999 -9999 -9999 -9999 33.93644 33.85787 33.77462 33.74763 35.14325 36.02066 36.40672 36.30999 36.97998 37.93629 39.94555 42.68025 45.51028 49.64268 53.05273 53.50058 53.49003 53.59394 53.95794 52.5689 49.59047 47.24143 46.08817 46.22945 46.70733 46.95694 48.01496 47.92583 48.01962 50.57704 51.28417 51.50733 51.75956 52.18404 52.6165 52.5359 53.50117 53.85598 54.25845 54.1569 54.81308 56.33263 55.90791 56.19846 56.13515 56.30619 56.33244 56.22141 56.19755 56.4556 56.23122 56.19318 55.52945 55.71783 55.41244 55.73666 55.58906 55.4477 55.62494 55.97019 56.19875 56.02326 55.76798 55.53898 55.28229 54.99148 54.72601 54.50638 54.46048 54.16462 54.59911 55.3489 56.06817 55.86112 55.93675 55.43076 54.90182 54.59383 54.74324 52.20564 51.98025 51.94841 52.00336 52.05737 51.98784 51.94857 51.90454 51.81769 51.79911 51.84764 51.84129 51.77587 50.06527 50.05293 50.14697 50.13988 50.13191 50.06641 49.84585 49.68361 49.51003 49.43262 49.37265 49.5312 49.60462 48.98524 49.0121 49.02527 48.99032 49.21609 49.31999 49.57353 50.10835 50.12514 50.42696 50.36668 50.39541 50.41705 50.58547 50.72973 50.83549 51.05928 55.45866 55.69428 57.48672 57.43056 57.74764 57.89442 57.70543 57.52599 57.40281 57.53168 57.49931 57.21964 57.17966 57.17813 56.9655 56.70931 56.35032 56.20015 55.99398 55.81219 55.36764 54.85935 54.79471 54.6515 54.45236 53.58638 53.5972 53.51947 53.41141 53.45881 53.45494 53.44823 53.16493 52.76505 52.64723 52.4741 52.11733 51.93804 51.92114 51.93154 51.93441 51.94 51.87847 51.82802 51.76825 51.76478 51.69471 51.64658 51.58927 51.54463 51.54169 51.49767 51.53719 51.68439 52.2365 53.39823 52.91388 53.33124 52.54851 53.85099 54.34762 53.58548 50.90503 50.07476 50.66506 50.58923 50.61776 50.58744 50.67321 50.71459 50.64708 50.58968 50.35935 50.36866 50.67642 50.98129 50.76584 51.05695 51.00177 51.1166 51.22594 51.32005 51.42211 51.42633
33.2601 33.24672 33.23277 33.21787 33.20121 33.18076 33.15137 33.14592 33.30169 33.36038 33.48501 33.61211 33.68056 33.79709 33.90794 34.08324 34.15032 34.224 34.31971 34.41861 34.54829 34.615 34.70346 34.82806 34.90424 35.03581 35.09122 35.20293 35.26637 35.64742 36.04606 36.1859 36.01152 35.98032 36.0614 36.19851 36.32182 36.33566 36.53564 36.54287 36.57043 36.74257 36.73138 36.54011 36.40327 36.40113 36.11428 36.42035 36.64124 36.42503 36.46391 36.66481 35.56435 36.16191 36.76485 37.28415 37.21374 37.29911 37.71462 37.84215 38.07512 38.19264 38.27679 38.65808 37.74756 38.52199 38.82194 38.5939 38.75304 39.12888 38.86168 38.97207 38.81941 38.45139 38.74043 38.53774 38.34544 38.4892 38.625 39.01371 38.86475 38.4584 38.17775 37.73249 37.32265 36.40823 35.26756 34.43897 33.47105 33.01965 33.01213 33.01238 33.01622 33.02402 33.03433 33.0464 33.05973 33.07399 33.08897 33.10461 33.12074 33.13721 33.15396 33.17095 33.18814 33.20592 33.2244 33.24341 33.26291 33.28316 33.30403 33.32534 33.34695 33.36877 33.39071 33.4127 33.43464 33.45643 33.47789 -9999 -9999 -9999 -9999 -9999 -9999 -9999 -9999 -9999 -9999 -9999 -9999 -9999 -9999 -9999 33.8964 33.82519 33.75021 33.70009 33.7995 35.87334 36.27547 36.31466 36.48571 37.3371 38.14213 39.70535 42.50808 45.54803 49.0572 52.24442 51.9718 52.32858 51.88378 50.99784 49.73594 47.65113 46.03474 46.12012 46.66672 46.59447 48.17378 48.16137 48.09589 49.00642 51.6455 52.50699 52.20842 52.33319 52.56199 53.00864 53.33571 53.54391 54.05669 54.43864 54.59501 55.67971 56.13471 56.2892 56.5496 56.4527 57.88213 58.40247 57.46542 57.31577 57.62292 57.51147 56.96928 56.75819 56.89349 56.96072 57.27453 56.61628 56.49131 56.68392 56.67605 56.29291 56.05117 55.81195 55.56679 55.24121 55.02419 54.95139 55.05768 56.37428 56.00611 56.55573 56.66476 56.82604 56.729 56.4741 56.3031 56.0313 55.35357 54.60139 54.4137 52.07804 52.13055 52.16687 52.3434 52.16004 52.2499 52.22075 52.07867 52.07212 52.09523 52.13828 52.20631 50.13515 50.06123 50.07158 50.13862 50.12807 50.10899 49.96464 49.85262 49.72205 49.45271 49.30308 49.45194 49.59284 49.26611 49.05425 49.12322 49.1446 49.16711 49.22342 49.82549 50.41064 50.3085 50.23209 50.26004 50.33669 50.41802 50.6441 50.75108 50.86084 51.0561 55.17708 54.93404 56.42797 57.68216 57.85827 58.17755 58.37753 57.66787 57.64163 58.1612 57.88074 57.41391 57.28516 57.13348 57.26485 57.03547 56.48858 56.39197 56.34982 55.98708 55.81227 55.5226 55.2247 55.00149 54.9089 54.36594 53.73454 53.51225 53.51667 53.45488 53.46546 53.4099 53.36009 53.1022 53.07582 52.88699 52.77852 52.49874 52.32015 52.13991 52.00279 51.82999 51.77948 51.78931 51.76 51.73809 51.73225 51.72011 51.70008 51.67556 51.64162 51.58468 51.54678 51.64244 51.74002 52.22078 51.63223 51.45327 52.20568 54.27229 53.82465 54.00117 51.53497 50.17471 50.5554 50.73828 50.67072 50.72882 50.79 50.80969 50.79 50.73468 50.79619 50.83932 50.78806 50.38583 50.8564 51.04936 51.0256 51.11076 51.25319 51.31161 51.34825 51.37363
33.24896 33.2351 33.22042 33.20429 33.18525 33.1596 33.11272 33.20328 33.33113 33.45028 33.55873 33.70209 33.76116 33.82446 34.02707 34.11346 34.15237 34.28787 34.40187 34.55148 34.56979 34.68 34.78694 34.8733 34.98147 35.058 35.11637 35.20089 35.40108 35.76494 36.14575 36.05416 35.93668 36.02142 36.09713 36.21952 36.23616 36.28878 36.46138 36.75236 36.76981 36.8749 36.69719 36.64946 36.48667 36.37638 36.22699 36.33446 36.47518 36.27636 36.25689 36.32217 35.6578 36.08613 36.78135 37.41692 37.23268 37.31179 37.61486 37.85519 38.16647 38.31856 38.3916 38.70586 38.86879 38.91751 38.92303 38.52198 38.05448 39.25008 38.91852 38.64635 38.59346 38.78099 38.63118 38.66056 38.60004 38.57965 38.73418 38.67863 38.7556 38.35019 38.33337 37.66393 37.11024 36.09852 34.93121 34.59054 33.42004 33.01787 33.0133 33.01209 33.01289 33.01813 33.02642 33.03683 33.04875 33.06176 33.0756 33.09009 33.10509 33.12058 33.13646 33.15264 33.16907 33.18573 33.20258 33.21961 33.2369 33.25494 33.27369 33.29314 33.31314 33.33361 33.35447 33.3756 33.39697 33.41867 33.44056 -9999 -9999 -9999 -9999 -9999 -9999 -9999 -9999 -9999 -9999 -9999 -9999 -9999 -9999 33.85606 33.79074 33.72264 33.66776 33.65902 33.84194 35.95805 36.17313 36.09724 36.72333 38.43847 38.49019 40.96177 44.8201 45.61209 48.70006 50.29446 50.04005 49.53351 49.2963 48.7401 47.89922 46.22525 46.01644 46.58751 46.48692 47.80618 48.27393 47.9348 48.26299 50.06609 52.14436 52.52285 52.54747 52.46056 52.61914 53.16377 53.9893 53.94995 54.48566 54.90102 55.24105 56.01655 56.31808 57.0873 57.97047 58.22689 58.70145 58.57925 58.36091 58.05567 58.25658 58.41848 58.3272 58.1235 57.70652 57.6567 57.60823 57.33847 57.19091 56.8876 56.59697 56.34312 56.08984 55.84275 55.55877 55.50402 55.36403 56.70226 56.94418 57.15396 57.14467 57.16861 57.15771 57.1685 57.10858 57.11766 57.03371 56.91427 56.56895 56.18842 54.45486 53.4361 52.42904 52.39407 52.41199 52.54973 52.70261 52.61012 52.35458 52.29849 52.31309 52.43074 52.4393 52.32403 50.08544 50.0689 50.1172 50.11604 50.06874 49.95411 49.87 49.79345 49.45723 49.32929 49.49702 49.62359 49.77414 49.19884 49.08782 49.10674 50.03364 50.48969 50.39282 50.29225 50.25658 50.25069 50.25696 50.36685 50.45696 50.61657 50.87254 51.00042 51.02616 51.41557 54.89773 54.98786 57.21605 58.02221 58.30977 58.72301 58.69081 58.84872 58.66531 58.29515 57.72758 57.53561 57.57901 57.54849 57.50069 57.0605 56.72889 56.5433 56.46014 56.15178 55.8245 55.53616 55.30526 55.08551 54.84845 54.69661 54.5443 53.75036 53.52299 53.49444 53.52507 53.5479 53.48922 53.47928 53.27334 53.2145 52.92063 52.669 53.0112 53.42518 52.87358 52.54015 52.34532 52.18953 52.00627 51.88515 51.70775 51.48281 51.61565 51.67011 51.67875 51.65999 51.52615 51.52567 51.6031 51.48233 51.72113 52.7057 54.91078 53.96564 53.11928 51.18806 50.58979 50.94807 50.92342 50.92104 50.85395 50.89439 50.99098 50.90884 50.85971 50.79696 50.80908 50.87407 51.04572 50.46661 50.72193 50.87005 51.02728 51.305 51.51846 51.54438 51.71471
33.23777 33.22332 33.20769 33.18982 33.16717 33.13777 33.16336 33.27653 33.38311 33.52568 33.60633 33.7419 33.87319 33.96062 34.03813 34.13088 34.25636 34.34296 34.46335 34.52994 34.63435 34.76335 34.86747 34.89783 35.00647 35.1238 35.18497 35.23909 35.64416 35.9015 36.00811 35.95205 35.9567 35.99359 36.18114 36.26251 36.38725 36.35869 36.5158 36.65657 36.76391 36.86029 36.82825 36.58687 36.5794 36.36608 36.29917 36.24466 36.40407 36.65031 36.46512 36.33253 35.98684 35.78561 36.66691 37.13068 37.18608 37.18156 37.5253 37.74152 38.40627 38.7547 38.07275 38.27325 39.07143 39.05102 38.9027 38.82498 38.49574 38.48096 38.80175 38.73414 38.39457 38.76407 38.61019 39.00463 38.6145 38.43286 38.61922 38.72809 38.68276 38.59221 38.15429 37.65436 36.93733 36.29585 35.28705 34.16404 33.29044 33.01727 33.0146 33.01184 33.01094 33.01366 33.02001 33.0287 33.03908 33.05071 33.0633 33.07664 33.0906 33.10506 33.11993 33.13518 33.15076 33.16663 33.18274 33.19907 33.21569 33.2332 33.25155 33.27058 33.2902 33.31036 33.33102 33.35205 33.37348 33.39547 33.41797 -9999 -9999 -9999 -9999 -9999 -9999 -9999 -9999 -9999 -9999 -9999 -9999 -9999 33.81559 33.75518 33.6929 33.63734 33.60744 33.60073 35.58836 36.25805 36.22094 36.16113 37.1431 38.92865 38.92788 41.27913 45.27698 45.46251 46.51709 47.89549 47.75674 47.45811 47.12879 46.44689 45.89648 46.05399 46.52954 46.49632 47.23408 47.96198 48.64388 49.3919 50.6689 52.26646 52.63814 52.77664 52.68027 52.90274 53.39156 53.7827 54.16374 54.84528 55.00691 55.38632 55.79105 56.42053 58.42928 58.66088 59.17235 58.93753 58.81337 58.62589 58.45536 58.34767 58.37009 58.43319 58.38307 58.14777 57.96245 57.79682 57.64684 57.47154 57.136 56.90434 56.65005 56.38258 56.12687 55.99911 55.9248 56.34347 57.0506 56.92489 56.95189 57.34132 57.37964 57.32294 57.30732 57.29948 57.29744 57.27642 57.21286 57.12631 57.25133 57.04685 55.39663 54.47004 52.22113 52.66659 52.65506 52.6196 52.94851 52.80462 52.55256 52.48005 52.46528 52.55927 52.54722 52.56206 51.46123 50.10178 50.05279 50.0385 49.94323 49.92231 49.75946 49.7617 49.39282 49.31826 49.49269 49.61653 49.73521 49.81236 50.11942 50.27063 50.41299 50.55065 50.3889 50.25484 50.24241 50.24579 50.2731 50.34795 50.4208 50.55936 50.81032 50.80204 50.55817 50.67162 52.02774 54.71092 56.1804 59.48609 59.63484 58.81711 59.32106 58.89249 58.50334 58.31697 57.93792 57.87917 57.84582 57.91806 57.6736 57.43328 57.18049 56.94331 56.94152 56.51721 56.09937 55.80416 55.565 55.2528 55.02985 54.7926 54.68545 54.36321 54.39219 54.42004 54.23654 53.92664 53.9296 53.94556 53.77378 53.64108 53.1659 52.71789 53.4762 53.3687 53.12232 53.04338 53.05832 53.17313 52.74165 52.56668 52.1223 51.63428 51.56379 51.44129 51.4941 51.51944 51.48017 51.3583 51.33519 51.80137 52.08192 52.8818 55.00465 54.21732 52.06675 50.25248 50.87262 51.06434 51.93125 53.10377 53.15257 51.44385 51.06156 50.99868 50.93534 50.92 50.95942 50.99374 51.01834 51.11747 50.47566 50.80505 50.83508 50.99569 50.9744 51.27717 51.26886
33.22651 33.21133 33.1944 33.17405 33.14971 33.06622 33.23373 33.33377 33.45143 33.53655 33.66247 33.79039 33.91746 34.06275 34.08971 34.22252 34.30694 34.42917 34.48381 34.59439 34.73029 34.78961 34.95056 34.96398 35.02765 35.11356 35.28839 35.4197 35.8693 35.93487 35.99979 36.02362 36.10438 36.13692 36.23293 36.33033 36.44756 36.46888 36.6143 36.60232 36.74076 36.85451 36.69538 36.72676 36.64014 36.3896 36.222 36.29707 36.4888 36.7681 36.47612 36.72067 36.01377 35.3505 36.43128 37.20841 37.14509 37.29543 37.65648 37.611 36.80597 38.26855 38.60711 39.05111 38.59365 38.62029 38.7005 38.68302 38.64309 38.39699 38.73423 38.62901 38.52484 38.50622 38.77576 38.85475 38.74654 38.75522 38.64108 38.80009 38.73498 38.10692 37.6585 37.2722 36.51613 36.03842 35.0638 33.77902 33.21922 33.01781 33.01434 33.0112 33.01052 33.01124 33.0154 33.02216 33.0308 33.0409 33.05212 33.06422 33.07703 33.09042 33.10431 33.11862 33.13329 33.14827 33.16354 33.17909 33.19493 33.21181 33.22972 33.24847 33.26794 33.28803 33.30867 33.32968 33.35114 33.37324 33.3961 -9999 -9999 -9999 -9999 -9999 -9999 -9999 -9999 -9999 -9999 -9999 -9999 33.77512 33.71903 33.66167 33.60839 33.57259 33.55622 34.02816 36.31396 36.38013 36.14256 36.26649 37.20323 38.19184 38.99548 40.96148 44.9363 45.63872 45.60212 45.73112 45.83769 45.73102 45.84454 45.88595 46.21921 46.46811 46.54109 46.64865 47.61383 48.46083 48.81094 50.77064 53.49511 52.77017 52.74328 53.39085 53.1039 52.94277 53.3652 53.91051 54.48718 55.02641 55.08078 55.72671 56.2714 57.4019 58.9009 59.2865 59.31496 59.03217 58.83834 58.74627 58.59744 58.46922 58.4361 58.46783 58.41945 58.2566 58.09898 57.91772 57.72503 57.39857 57.18826 56.93982 56.66514 56.45182 56.36261 56.63047 57.1054 57.06966 56.88546 56.84179 56.92529 57.30613 57.37766 57.34666 57.30948 57.29776 57.30679 57.13298 57.39257 57.36983 57.37549 57.35407 56.71085 55.69414 54.30021 52.93913 52.9885 53.05492 53.16132 53.01644 52.72882 52.57887 52.59287 52.70309 52.6425 52.74814 52.60853 50.14 50.14039 50.14949 50.10697 50.10886 50.39462 49.81492 49.55142 49.46553 49.5246 49.6544 49.76945 49.91862 50.13545 50.2833 50.46796 50.55436 50.31936 50.26031 50.21916 50.19335 50.22509 50.29755 50.35409 50.64226 50.38956 50.42607 50.56301 50.65009 50.74944 54.83741 55.05068 58.44415 60.10853 59.41844 59.52611 59.66637 59.35644 59.24575 58.7502 58.16321 58.21471 58.21446 58.0449 57.7987 57.64196 57.45592 57.24217 56.82441 56.38718 56.12648 55.87552 55.24993 55.1587 54.9767 55.21128 55.53543 55.51195 55.298 54.53889 54.36494 54.35838 54.38366 54.242 54.29552 53.99179 52.81885 54.59172 54.46647 53.35035 53.79102 53.76291 53.0695 53.07766 52.8792 52.68712 52.09783 51.65319 51.55127 51.60906 51.4646 51.58992 51.63306 51.83581 52.06432 52.44075 52.81786 54.95749 54.08744 51.40706 50.63444 51.00902 52.20315 54.81293 54.82449 53.96045 51.43109 51.25816 51.04278 51.05077 51.072 50.991 50.99431 51.05624 51.1379 51.11271 50.96189 50.93819 50.95768 50.9271 50.84177 50.90027
33.21517 33.19903 33.18037 33.15851 33.12082 33.1521 33.30076 33.397 33.5351 33.62248 33.72061 33.85994 33.99774 34.054 34.15682 34.25723 34.43086 34.43849 34.54335 34.64256 34.75404 34.96334 34.96318 35.03643 35.0957 35.23615 35.29261 35.52568 35.82365 35.98395 36.03542 36.05 36.07333 36.1254 36.41107 36.49702 36.40037 36.39725 36.66594 36.64318 36.79549 36.74117 36.68313 36.64745 36.68609 36.54395 36.3113 36.10816 36.58934 36.64547 36.6013 37.05577 35.99533 35.25548 36.40836 36.99989 37.23004 37.42107 36.25936 37.83303 37.63745 38.51852 38.59676 38.3334 38.45992 38.54863 38.61495 38.57591 38.56433 38.60366 39.63385 38.60025 38.54382 38.57099 38.66331 38.7161 38.73995 38.49319 38.81393 38.5388 38.46181 38.08992 37.16032 36.80497 36.30382 35.62217 34.57444 33.58973 33.05124 33.0164 33.01263 33.01138 33.01106 33.01113 33.01275 33.01735 33.02409 33.03248 33.04218 33.05291 33.06448 33.07671 33.08952 33.1028 33.1165 33.13058 33.14498 33.15968 33.17467 33.19073 33.20813 33.22655 33.24583 33.26587 33.28651 33.3075 33.329 33.35123 33.37444 -9999 -9999 -9999 -9999 -9999 -9999 -9999 -9999 -9999 -9999 -9999 33.73468 33.68272 33.62964 33.57966 33.54217 33.51725 33.41078 35.70627 36.29738 36.25634 36.04549 36.28752 37.00171 37.89664 38.71574 40.7212 44.60711 45.62947 45.70933 45.67402 45.64613 45.97509 46.01706 46.11779 46.44176 46.50227 46.5657 47.43465 48.62275 49.54018 49.68515 52.19042 52.9705 52.77748 52.7771 53.59723 53.3438 52.68718 53.16377 53.9832 54.59874 54.97579 55.26385 56.58417 57.63218 58.4295 59.13346 59.32293 59.35016 59.251 58.97403 58.81941 58.71074 58.57774 58.53381 58.492 58.39247 58.2938 58.25745 57.87821 57.68803 57.45115 57.1697 56.98507 56.91533 56.70479 56.79292 57.10973 57.05502 56.93784 56.84487 56.79414 56.88047 56.99522 57.06216 57.09372 57.10711 57.27813 57.23386 57.10366 57.33 57.48843 57.50878 57.40968 56.9743 56.33882 55.60889 53.25607 53.36064 53.39178 53.40694 53.30042 52.98342 52.62683 52.62747 52.80362 52.76963 52.80663 53.02846 52.27303 50.20451 50.33176 50.30664 50.13322 49.95086 49.81593 49.64602 49.56263 49.51649 49.66433 49.80014 49.97193 50.06512 50.18799 50.3146 50.4586 50.27913 50.20417 50.15789 50.1434 50.15001 50.19297 50.25613 50.31369 50.31404 50.43991 50.50605 50.54524 50.69207 53.30442 54.70832 56.63712 60.1187 60.64445 59.74906 60.08969 60.20961 60.07693 59.79689 59.45076 59.13163 58.77374 58.52728 58.32368 58.15362 57.91381 57.47989 57.03317 56.78037 56.36975 56.14723 55.86763 55.45542 55.31371 55.47318 55.61689 55.70218 55.79929 55.41003 54.8483 54.79295 54.77777 54.65415 55.91457 54.44416 54.14481 53.41306 54.43985 53.93803 54.15847 53.48188 53.23023 53.56667 53.1959 54.04576 52.90077 52.60931 51.54341 51.55726 51.46454 51.60306 52.57656 52.68649 52.5654 52.87892 54.02108 55.16061 53.17408 50.28802 51.0489 51.63382 53.78677 56.97761 56.31134 53.97095 51.732 51.36406 51.26949 51.21042 51.30981 51.25853 51.11646 51.08967 51.13443 51.18948 51.17938 51.17024 51.16987 51.20911 51.23785 51.27444
33.20371 33.18637 33.16646 33.14045 33.12312 33.22394 33.32245 33.46508 33.57589 33.6532 33.80957 33.98353 34.01834 34.11889 34.24731 34.3199 34.43967 34.52951 34.62712 34.70195 34.85955 34.98624 35.02214 35.05106 35.14801 35.31806 35.45022 35.66299 35.85579 35.95463 36.03969 36.10007 36.20018 36.30172 36.61265 36.49944 36.34544 36.45734 36.68297 36.74963 36.70256 36.72218 36.80352 36.52767 36.62668 36.68319 36.26845 35.99149 36.40963 36.67799 36.66776 36.963 36.06866 35.79546 36.31631 36.75294 37.14491 37.53666 36.87129 38.50193 39.37125 38.83855 38.70197 38.75007 38.47987 38.46265 38.63344 38.77313 38.84042 38.75763 38.86887 38.58744 38.44448 38.50631 38.45346 38.73824 38.55785 38.54799 38.54992 38.41845 38.25393 36.91518 36.77252 36.77607 36.19558 35.45184 34.29799 33.46607 32.99767 33.01255 33.01138 33.01226 33.01223 33.01228 33.01227 33.01441 33.01905 33.02557 33.03361 33.04284 33.05303 33.064 33.07562 33.08779 33.10043 33.11351 33.12697 33.14078 33.1549 33.16992 33.18665 33.20468 33.22377 33.24376 33.26442 33.28542 33.30698 33.32936 33.35294 -9999 -9999 -9999 -9999 -9999 -9999 -9999 -9999 -9999 -9999 33.69419 33.64631 33.59762 33.55091 33.51405 33.48424 33.43256 33.78661 34.76867 35.53194 35.55953 35.53432 36.00148 36.80823 37.54779 38.60445 40.01006 42.65656 45.97031 45.67038 45.66736 45.62123 46.01262 46.15077 46.38223 46.48046 46.68313 47.23815 48.21733 49.59134 50.5218 50.8738 52.39318 52.85778 52.91081 53.23315 53.0943 54.19782 54.23294 54.08616 54.35288 54.63853 54.96428 56.46003 58.62064 59.09787 59.09394 59.32064 59.35175 59.3819 59.24978 59.0507 58.8882 58.77499 58.71581 58.58888 58.53767 58.50742 58.35855 58.15364 57.94273 57.72102 57.48523 57.26155 57.18929 57.26227 57.16566 57.29333 57.11529 57.01831 56.9222 56.83926 56.77634 56.83072 56.89994 56.94137 57.01896 57.02599 57.01398 57.01691 57.1883 57.37108 57.62622 57.65839 57.76413 57.49506 57.32896 56.25039 55.98917 53.28349 53.79186 53.82845 53.9716 53.12557 52.94289 52.92668 53.10072 53.02924 52.92043 52.85527 51.50832 50.27783 50.30508 50.29599 50.06933 49.89635 49.8069 49.70744 49.66397 49.5547 49.57885 49.73529 49.78723 49.9791 50.07983 50.20003 50.32074 50.18837 50.17165 50.15442 50.10886 50.11599 50.16852 50.21873 50.31007 50.4272 50.32487 50.53417 51.51407 52.65573 54.18485 54.6511 55.53034 58.88507 59.82121 60.01224 60.40371 61.02845 61.04168 61.04759 60.94033 60.29966 59.54872 59.1207 58.86938 58.77144 58.3355 57.72076 57.31007 56.95259 56.60941 56.35711 56.00508 55.66196 55.33372 55.6365 55.81934 55.87123 55.78197 55.59053 55.25186 55.21108 55.18559 55.07342 55.38153 54.98523 55.54506 55.66276 55.6606 54.10214 53.98317 54.16446 53.66902 54.07619 53.60793 53.21783 53.38258 53.10035 53.07205 52.40037 52.20444 52.05975 52.50579 53.12711 53.18896 53.54387 53.67464 53.10217 51.7751 50.08936 51.27063 52.32422 55.30089 58.6512 59.30954 55.55486 52.65749 52.45673 51.43849 51.35863 51.40024 51.37289 51.29451 51.20451 51.18111 51.17941 51.23835 51.23225 51.25068 51.28166 51.29461 51.32399
33.19217 33.17381 33.15289 33.11286 33.2041 33.30188 33.38562 33.48198 33.65331 33.76756 33.94801 34.01263 34.03363 34.14526 34.31412 34.41152 34.4935 34.626 34.70637 34.78645 34.91321 34.98612 35.02199 35.14942 35.26689 35.44592 35.56345 35.8261 35.92877 35.92158 36.15207 36.16623 36.26582 36.33468 36.60962 36.54913 36.34445 36.439 36.58738 36.7125 36.85208 36.73226 36.64856 36.58383 36.4713 36.77681 36.37876 36.00752 36.03546 36.53427 36.4996 36.99784 36.02479 35.86668 36.2753 36.66644 37.06216 37.06699 37.55361 37.37221 36.87072 38.35151 38.54128 38.7911 38.59233 38.5262 38.75547 38.61698 38.93911 39.43006 39.54536 38.77962 38.32486 38.29216 38.35157 38.45403 38.49681 38.3483 38.00124 37.56098 36.75224 36.67624 36.63477 36.49468 35.94023 35.09211 33.93014 33.33475 33.01392 33.00804 33.01189 33.01341 33.01381 33.01368 33.01368 33.01374 33.01606 33.02053 33.02667 33.03421 33.04287 33.05244 33.06274 33.07369 33.0852 33.09719 33.10961 33.12243 33.1356 33.14941 33.16523 33.18275 33.20158 33.22151 33.24224 33.26329 33.28494 33.30753 33.33155 -9999 -9999 -9999 -9999 -9999 -9999 -9999 -9999 -9999 33.65367 33.60959 33.56564 33.52306 33.48726 33.45517 33.41577 33.7844 35.76466 34.34823 34.7037 34.9334 35.1272 35.54913 36.15733 36.55221 37.884 39.00602 42.05587 45.47467 45.71861 45.5821 45.66381 45.94937 46.27957 46.45582 46.51667 47.22766 48.47742 49.73217 50.82546 51.34691 52.74622 52.71763 52.92347 53.02499 52.91089 53.09879 53.43841 54.768 54.97858 54.54531 54.2417 55.33225 58.91126 58.67203 58.84106 59.23415 59.35915 59.34992 59.18105 59.14318 59.12101 59.00665 58.88552 58.76762 58.70006 58.69335 58.59127 58.35297 58.20124 57.98154 57.6964 57.5598 57.47716 57.41286 57.63123 57.6698 57.27475 57.23571 57.10362 56.91439 56.87494 56.8893 56.8924 56.97724 57.02541 57.0302 56.95684 56.98144 57.12242 57.40766 57.62807 57.70776 57.79901 58.44672 59.11279 58.62481 58.10485 57.20256 55.38293 54.15548 54.27222 54.32396 54.52111 53.38086 53.85339 54.65635 54.37317 53.63517 52.03672 50.34911 50.37573 50.33842 50.18142 50.06631 49.94949 49.91893 49.84789 49.74722 49.68924 49.55358 49.66631 49.72425 49.91248 49.95624 50.08038 50.1913 50.1185 50.12366 50.06179 50.05977 50.14872 50.23172 50.23509 52.5765 53.38938 54.14739 54.28215 56.237 56.44365 56.34803 54.62686 54.64459 57.08103 58.98487 59.88043 60.69087 61.11593 61.31195 61.95829 62.14466 61.69452 60.61458 59.86356 59.63953 58.84536 58.99821 58.25455 57.64532 57.25502 56.93161 56.68782 56.25356 55.925 55.78474 56.02526 56.11473 56.18324 56.31607 55.94351 55.58813 55.61893 55.55763 55.53073 55.43173 55.30865 55.22938 55.51138 55.59767 55.13763 55.09905 54.86111 54.70983 54.46628 54.41765 53.34143 53.93002 53.96162 53.89846 54.04515 53.07553 53.10602 53.71087 53.45457 53.22459 53.68689 53.6193 52.76362 51.33437 51.04736 51.28681 53.76445 56.97301 59.25954 59.28296 58.80087 54.68501 52.10614 51.60468 51.49443 51.46425 51.3814 51.35958 51.27845 51.29568 51.32994 51.27601 51.32666 51.27691 51.29199 51.36 51.39976
33.18086 33.16255 33.13237 33.14359 33.24617 33.3298 33.46505 33.56665 33.74345 33.8754 33.97674 34.03659 34.14 34.26355 34.38179 34.45481 34.56641 34.64791 34.75288 34.84586 34.96234 34.99303 35.13158 35.28331 35.37341 35.46933 35.58575 35.97231 35.94566 36.0462 36.0119 36.26231 36.42464 36.41957 36.5716 36.34388 36.4902 36.48274 36.67352 36.63082 36.85708 36.73622 36.47762 36.62732 36.44081 36.63184 36.62803 36.32038 35.89465 36.45385 36.26423 36.17094 35.3557 35.91198 36.30397 36.69383 37.08364 36.72197 37.31052 37.3816 36.90284 38.33303 38.18087 38.3755 38.52429 38.59502 38.77422 38.75996 38.71947 38.93686 39.35946 38.64365 38.45922 38.20187 38.10635 38.02863 37.419 36.68665 36.76592 36.78456 36.65664 36.98763 36.98437 36.31314 35.82195 34.79908 33.68199 33.19902 33.00092 33.00877 33.01265 33.01431 33.0154 33.01587 33.01597 33.01584 33.01579 33.01785 33.02184 33.0274 33.03429 33.04224 33.05109 33.0607 33.07094 33.08174 33.09301 33.10473 33.11685 33.12936 33.14386 33.16066 33.17916 33.19902 33.21985 33.241 33.26278 33.28566 33.31026 -9999 -9999 -9999 -9999 -9999 -9999 -9999 -9999 33.61315 33.57257 33.53313 33.49593 33.46239 33.42908 33.38864 33.5395 36.13674 36.69829 36.17526 35.52574 35.61232 35.75158 36.16103 36.76406 37.26639 37.96233 38.2105 41.27745 45.48219 46.04087 45.69754 45.7919 46.38241 46.53218 46.64442 47.001 48.71207 50.28585 52.4215 54.00653 51.95126 52.95261 52.94759 52.87756 53.24375 52.88177 53.68748 54.39851 53.83175 54.42587 53.58659 54.60431 56.18264 58.60772 58.36304 58.6378 58.87931 59.30417 59.13733 59.18042 59.19001 59.18262 59.09002 58.97232 59.12617 59.16739 58.89101 58.63308 58.46771 58.21371 57.9951 57.88533 57.69513 57.50024 57.50669 57.51241 57.53313 57.63346 57.745 57.33115 57.06253 57.05148 57.07221 57.10843 57.08992 57.15265 57.15799 57.11489 57.10286 57.23085 57.61405 57.84701 57.88477 57.92083 59.38993 60.16497 59.87958 58.80555 58.87524 57.38976 55.55561 54.77266 54.74255 54.95147 55.95472 56.03531 55.64651 54.62166 53.29765 50.67228 50.4121 50.46281 50.34154 50.25312 50.18565 50.12413 50.01449 49.9804 49.75714 49.76883 49.60106 49.65256 49.69072 49.79256 49.9035 49.99364 50.09384 50.18393 49.99413 49.95554 50.02723 50.08887 50.25084 50.37799 52.042 55.99302 56.79652 54.35948 52.83047 54.14631 54.61353 54.57105 54.52447 56.50566 58.06998 59.21835 60.83797 61.49526 61.60835 61.57624 61.5507 62.12758 61.08796 60.70634 60.55308 59.8616 58.98809 58.51444 58.00274 57.7694 57.55605 57.08685 56.59343 56.14305 56.05975 56.18427 56.27216 56.39 56.37278 56.25012 56.0145 56.09671 56.00164 56.36487 55.72707 55.70199 56.70758 56.24134 55.74157 55.92863 55.98072 55.33458 55.34523 55.36965 55.17897 55.12099 54.56683 54.43511 53.75132 53.80182 53.61853 54.08333 53.28954 53.34063 52.95987 53.68061 52.96653 52.10377 50.7473 51.38303 51.84914 55.11957 58.40707 58.09544 57.85841 57.90874 57.51828 53.85503 52.37255 51.64021 51.52468 51.42188 51.44775 51.37502 51.38737 51.36079 51.44986 51.44801 51.45825 51.37788 51.35386 51.37202
33.17093 33.1477 33.12308 33.19645 33.29661 33.4208 33.51451 33.6949 33.85009 33.93164 33.96068 34.07814 34.17641 34.33468 34.4304 34.48233 34.63061 34.75 34.81978 34.93895 35.00943 35.04828 35.15979 35.28906 35.46447 35.5602 35.8121 35.87346 35.83681 36.08997 36.09577 36.33537 36.40355 36.50549 36.51676 36.39301 36.59057 36.47656 36.69944 36.61271 36.70229 36.60268 36.53216 36.43669 36.51819 36.58537 36.55515 36.44125 35.86449 36.32378 36.3253 36.06681 35.87036 35.99372 36.33452 36.72411 37.09801 37.18884 37.71015 38.36298 38.2235 38.39768 38.03447 38.24046 38.54432 38.43093 38.47657 38.60033 38.61393 38.65236 38.44223 38.31993 38.20379 38.10682 36.94376 36.95098 37.06723 36.86731 36.75616 36.5493 36.72637 37.07772 36.88665 36.33914 35.62719 34.37276 33.53703 33.20309 32.99493 33.00951 33.01325 33.01643 33.01841 33.01942 33.01952 33.01929 33.01875 33.01827 33.01974 33.02301 33.02774 33.03378 33.04096 33.04904 33.05786 33.06731 33.07731 33.08779 33.09872 33.11007 33.12261 33.13831 33.15633 33.17611 33.19712 33.21841 33.2404 33.26366 33.28907 -9999 -9999 -9999 -9999 -9999 -9999 -9999 33.57269 33.53545 33.50008 33.46824 33.43967 33.40565 33.36109 33.86933 36.60173 36.5826 36.4868 36.34698 36.25835 36.15629 36.13272 36.56964 37.07107 37.478 38.52117 39.18833 40.72198 43.75917 46.04062 46.54816 46.38757 46.49429 46.72102 47.44227 48.23201 49.95195 52.71399 53.34497 53.57298 52.5716 53.18439 53.07175 52.96315 52.81453 52.93 53.53497 54.66843 53.22387 53.43367 54.06804 55.59724 57.77238 58.13778 58.41784 58.63089 58.81246 58.94251 58.98104 59.05704 59.22909 59.25158 59.11773 59.32347 59.29137 59.00735 58.89046 58.66141 58.43768 58.28225 58.17207 57.95427 57.60144 57.4084 57.49192 57.54375 57.5921 57.64931 57.68621 57.70535 57.78637 57.90507 58.04007 57.81843 57.65889 57.59812 57.4319 57.5063 57.5022 57.50828 57.91035 58.0492 58.00588 58.72546 60.41717 60.81269 60.8463 59.74079 59.77981 58.74072 57.26664 55.32391 55.33664 55.357 55.52413 55.64722 55.15823 54.62947 52.87624 50.64967 50.54325 50.42326 50.46716 50.48206 50.35313 50.24498 50.16239 50.01256 49.89538 49.76706 49.63288 49.55906 49.65889 49.73038 49.83324 49.9362 50.01172 50.11685 50.09653 50.02414 50.00062 50.12931 50.2907 50.52821 51.08773 53.83902 53.27863 51.2923 51.77229 53.40359 54.57685 54.45815 56.40906 57.31898 57.68327 58.26625 60.49408 61.9183 62.21225 62.5824 62.66361 61.99564 61.73396 60.72717 60.29893 60.26543 59.44782 59.04059 58.42532 58.26372 58.36912 57.63498 57.20179 56.02755 56.17549 56.18798 56.29879 56.39134 56.49606 56.62979 56.50717 56.56796 56.35574 56.23971 57.01389 57.14448 57.36592 56.65183 56.18757 56.56231 56.41526 56.0919 55.4834 55.30558 54.99342 55.27752 55.0857 54.58963 54.50838 54.36354 54.14886 54.77836 53.44981 53.56361 53.17212 53.73454 53.48199 52.0986 50.4365 51.60171 52.88298 56.27082 58.21027 57.50772 57.42983 57.49519 58.04361 54.75948 52.30988 51.64908 51.53456 51.51838 51.55519 51.51 51.46327 51.50555 51.47304 51.43126 51.40003 51.41599 51.39713 51.40817
33.15984 33.1321 33.15522 33.24354 33.35696 33.47452 33.62019 33.75253 33.87337 33.96843 34.06252 34.14742 34.30069 34.3857 34.49817 34.56911 34.69801 34.77892 34.87566 34.99388 35.02105 35.14614 35.19964 35.37358 35.46335 35.72043 36.07325 35.92722 36.00891 36.23326 36.15788 36.38764 36.35321 36.49493 36.35817 36.534 36.61202 36.43558 36.66346 36.74279 36.56516 36.72399 36.56863 36.43651 36.47388 36.62734 36.54015 36.18334 35.77021 36.27502 36.18008 35.73875 35.95815 36.12338 36.36058 36.74738 37.19562 37.40936 38.03547 38.52865 38.40386 38.37211 38.4595 38.4301 38.45393 38.46845 38.33816 38.42982 38.53887 38.40713 38.3461 38.12692 37.37443 37.0716 37.0947 37.14213 37.17835 36.82879 36.45328 36.63949 36.39064 36.49245 36.36418 38.11209 35.74616 33.95556 33.36759 33.09143 33.00096 33.01075 33.01688 33.02063 33.02276 33.02381 33.02407 33.02362 33.02292 33.02194 33.0209 33.02153 33.02386 33.02768 33.03281 33.03908 33.04625 33.05417 33.0627 33.07175 33.0813 33.09135 33.10188 33.11558 33.13282 33.15247 33.17384 33.19538 33.21762 33.24143 33.26798 -9999 -9999 -9999 -9999 -9999 -9999 33.5323 33.49837 33.46698 33.44004 33.41735 33.38854 33.34334 34.1748 36.13984 36.46455 36.31693 36.43919 36.55084 36.71038 36.85055 36.87668 37.11482 38.15751 37.77646 38.65139 40.42006 42.51625 44.67259 45.97466 46.38969 46.55942 47.07678 48.45605 49.60191 50.69431 52.49952 53.38985 53.36869 53.38781 53.31263 53.17463 53.08324 53.0499 52.92017 52.99148 53.13671 53.26725 53.40262 53.51284 54.91818 57.03751 58.0711 58.08048 58.24358 58.62696 58.74412 58.87049 58.97208 59.04433 59.1131 59.19734 59.43351 59.52705 59.25584 59.07677 58.86385 58.70247 58.49582 58.33307 58.2085 58.10154 58.11123 58.19507 57.86084 57.79094 57.68226 57.68483 57.60904 57.73817 57.80896 57.86075 57.96661 57.9878 58.0374 58.06965 58.03746 58.11371 57.97763 57.97243 58.26765 58.53586 58.79413 61.08606 61.29714 61.44368 60.9426 59.97108 60.78625 60.46827 58.94301 57.33363 55.63387 55.88646 55.99286 56.08144 55.01216 54.53117 52.67802 50.95018 50.50477 50.49573 50.52358 50.51561 50.44871 50.31283 50.21204 50.04616 50.02081 49.88044 49.7268 49.6677 49.62553 49.69828 49.80847 49.82333 49.90962 50.09602 50.09653 50.18419 50.37083 50.25663 51.15498 50.72471 50.67558 50.6473 50.88587 52.41507 54.72834 54.58537 54.47581 55.36361 56.52079 57.11427 57.53367 57.88191 60.84816 62.57988 62.66778 63.10854 63.16413 62.06178 61.08717 60.89454 60.56807 60.27869 59.37598 59.06791 58.5554 58.13855 57.4651 56.65377 56.79307 56.79451 56.27551 55.97663 56.59596 56.6598 56.85852 56.92626 56.90984 56.97759 56.66877 56.75243 57.8287 57.42179 57.34541 57.34349 57.2817 57.17438 57.26943 56.83966 56.37246 56.31564 56.01637 55.80976 55.5798 54.89718 54.56168 54.6019 54.55515 55.10491 53.81052 54.84217 54.46459 53.66096 53.02977 51.99789 50.2968 51.60351 53.52396 57.13506 57.46452 57.40709 57.4609 57.40202 57.62173 53.6933 51.51251 51.5803 51.54219 51.48718 51.45826 51.44251 51.47429 51.52996 51.51291 51.52185 51.44613 51.3706 51.36053 51.46905
33.14691 33.13198 33.20315 33.29234 33.43647 33.52441 33.70694 33.79544 33.89748 33.98485 34.09135 34.23394 34.3139 34.43119 34.50303 34.63757 34.75801 34.88219 34.90055 34.9952 35.09751 35.18511 35.287 35.43253 35.54688 35.84395 35.86369 35.84506 36.15826 36.19225 36.23903 36.39864 36.35542 36.51347 36.16222 36.7169 36.72779 36.36567 36.59776 36.76067 36.64229 36.59426 36.33237 36.64977 36.42907 36.39473 36.45918 36.56982 35.87511 36.45567 36.16383 35.7318 36.01444 36.21921 36.36068 36.67704 37.27898 37.60931 36.95802 38.04207 38.34887 38.59216 38.72654 38.61646 38.68875 38.48498 38.50327 38.45372 38.52376 38.37623 37.97574 37.40876 37.23481 37.08826 37.04856 37.05199 36.8849 36.70039 36.37175 36.45842 36.66944 36.93998 37.72557 38.9166 34.801 33.6882 33.22855 33.01089 33.00523 33.01694 33.02286 33.02625 33.02813 33.02901 33.02919 33.02879 33.02785 33.02671 33.02534 33.02374 33.0233 33.02461 33.02735 33.0314 33.03659 33.04268 33.04946 33.05686 33.06482 33.07334 33.0824 33.09274 33.10829 33.12759 33.14949 33.17168 33.19424 33.21881 33.24709 -9999 -9999 -9999 -9999 -9999 33.49201 33.46144 33.4343 33.4127 33.39523 33.37825 33.33552 34.99739 36.49027 36.56478 36.5239 36.60265 36.8324 37.2674 37.93491 36.9929 36.65105 37.89659 39.73248 39.64125 40.16362 42.91983 45.31842 45.97779 46.43545 46.53688 46.99409 48.56288 50.51656 51.80705 52.86199 53.85444 53.84727 53.67007 53.45753 53.37823 53.23501 53.22986 53.12749 53.18811 53.45883 53.8118 54.0586 53.98366 53.97874 54.85043 57.42082 58.10706 58.12365 58.3546 58.74153 58.82618 58.93481 59.04559 59.19767 59.37819 59.44508 59.72831 59.45604 59.29254 59.08121 58.91813 58.79949 58.4272 57.99724 58.26904 58.33236 59.0066 58.98573 58.96836 59.01574 59.29347 59.17236 58.47724 58.08328 58.42252 58.26699 58.28434 58.18964 58.06739 58.08433 58.16876 58.23328 58.34325 58.42573 58.55615 58.7337 59.83067 61.42741 61.99818 62.42073 61.83794 59.96212 60.67085 61.25748 60.67088 58.71143 57.1115 55.96083 56.42491 56.55311 56.74628 56.21744 55.37265 53.96204 52.79131 51.86755 51.02412 50.79345 50.46037 50.51263 50.36922 50.09243 50.07101 49.95581 49.85553 49.83261 49.68098 49.76519 49.81167 49.88512 49.99643 50.10541 50.3773 50.89847 51.07825 51.02145 52.71266 52.11354 51.30439 52.93773 53.71772 54.35719 54.4533 54.43293 54.70312 55.36731 57.08075 57.60469 57.77757 59.13294 63.13963 64.20541 63.18624 63.55076 63.6965 62.63379 61.54683 61.29755 60.82795 60.23227 59.60924 59.18893 58.89532 58.19728 57.685 57.04749 57.61582 57.8024 57.69754 57.18506 57.31712 57.53298 57.1726 57.33258 57.31929 57.35595 57.13371 56.97828 57.18043 57.01299 57.0701 57.1423 57.2482 57.29382 57.31372 57.46912 57.4053 57.32162 57.16816 56.93535 57.0886 55.09599 55.16302 55.27692 54.18706 54.59615 54.18699 54.89595 53.77225 53.28664 52.84827 52.24868 50.48918 51.55016 54.06144 57.63889 57.54213 57.42758 57.42122 57.32877 56.42495 53.11185 51.45009 51.45177 51.46123 51.50521 51.502 51.51798 51.47864 51.55387 51.46604 51.63929 51.45558 51.42973 51.66258 51.70547
33.14094 33.14743 33.23563 33.38305 33.47735 33.64602 33.77136 33.86378 33.985 34.08837 34.24809 34.36251 34.44048 34.47886 34.64948 34.71568 34.84075 34.88942 34.93034 35.03144 35.11322 35.22281 35.40868 35.50934 35.5547 36.02591 35.74102 36.04202 36.1732 36.14974 36.50694 36.59369 36.51802 36.55014 36.15463 36.68758 36.54248 36.44961 36.61736 36.8144 36.63561 36.49845 36.68619 36.84492 36.55658 36.39038 36.42083 36.5702 36.00447 36.137 36.21936 36.00364 36.13503 36.14949 36.2783 36.58274 36.81796 37.31984 37.11039 38.20891 38.79953 38.53087 38.57411 38.59599 38.54924 38.63229 38.44186 38.25123 38.28646 37.78756 37.47458 37.15684 36.95482 36.9024 36.76487 36.7135 36.6987 36.74684 36.68441 36.422 36.98897 38.18285 38.38874 35.91896 34.1114 33.53047 33.11921 33.00796 33.01823 33.02587 33.03051 33.03302 33.03438 33.03493 33.03489 33.03439 33.0335 33.0322 33.0307 33.02896 33.02704 33.02548 33.02554 33.02697 33.02966 33.03347 33.03816 33.04358 33.04965 33.05636 33.0637 33.07162 33.08271 33.10087 33.12322 33.14688 33.16998 33.19565 33.22662 -9999 -9999 -9999 -9999 33.45199 33.42511 33.4028 33.38702 33.37542 33.36963 33.36023 34.89332 36.18114 36.54967 36.62548 37.05116 37.05956 37.48085 38.02919 38.38556 37.83777 37.91156 40.08276 42.69643 44.60241 44.21328 45.49328 46.15771 46.43739 46.58432 46.99228 48.66801 51.15614 53.01336 54.03643 54.7739 54.33191 54.38203 53.9504 53.76877 53.49994 53.51115 53.93154 53.72942 53.79892 54.10109 53.98204 53.96106 54.01297 54.08378 55.48555 58.11869 58.14548 58.21529 58.45264 58.80816 58.95237 59.07729 59.32247 59.47998 59.55832 59.92883 59.60002 59.47301 59.30022 59.11018 59.13926 58.73484 58.73081 58.55353 58.45853 58.51603 59.40265 59.54821 59.60767 59.51212 59.54308 59.60445 59.34195 59.35625 59.40886 59.57896 59.6353 59.55732 59.423 59.31558 58.77044 58.45583 58.56012 58.77084 58.93287 59.48817 60.7147 62.082 62.37002 62.60042 62.5763 62.92955 62.08995 62.4408 61.90711 59.89475 57.83746 56.64624 56.23477 56.94954 57.13404 57.38671 57.53172 56.92075 55.72051 54.84126 54.32629 54.10477 53.64249 53.17112 52.71749 52.00689 52.03178 51.73389 51.83918 50.56305 51.67131 51.61097 51.77202 51.21128 51.14872 50.97724 51.2085 51.10984 51.5448 52.20184 52.60804 52.82422 53.04676 53.36401 53.71498 54.06321 54.20386 54.35531 54.91347 56.93347 59.0835 58.62975 60.41133 62.18097 64.92122 64.72547 63.74929 63.82149 64.26558 63.79158 62.70583 61.99797 61.32719 60.65574 60.04365 59.67898 58.90583 58.40717 58.08969 57.53807 57.4948 57.23549 57.1736 57.44551 57.60922 57.99282 58.37234 57.4687 57.63293 57.61928 57.45597 57.31179 57.11356 56.9921 57.00965 57.25339 57.14096 57.22599 57.30017 57.37372 57.40021 57.44833 57.42881 57.39234 57.33683 56.07034 54.89461 55.46634 54.35065 54.91067 54.32286 54.22158 53.87648 52.91251 52.64851 52.28316 50.87389 51.89549 53.94015 57.2508 57.81666 57.36256 57.06883 56.92028 55.71497 52.23039 51.39757 51.48594 51.44698 51.48844 51.50609 51.48934 51.54365 51.6265 51.45761 52.03933 51.91578 51.91054 51.72887 51.77369
33.10059 33.21434 33.33014 33.4694 33.57079 33.68681 33.80361 33.85423 34.07133 34.22418 34.33568 34.39357 34.47985 34.57468 34.67941 34.79056 34.91156 34.93968 35.04303 35.19081 35.22739 35.3172 35.59211 35.55184 35.75137 35.75213 35.86831 36.05658 36.18179 36.63799 36.7396 36.52933 36.52716 36.2774 36.49475 36.57468 36.47171 36.5406 36.55755 36.80666 36.57136 36.39696 36.56633 36.66418 36.51798 36.34476 36.43092 36.33296 36.17911 35.9116 35.88266 35.95026 35.81959 35.77893 35.86042 35.77332 36.21326 37.23996 38.31045 38.64553 38.44287 38.41651 38.49714 38.4652 38.50118 38.6055 38.55106 37.96838 37.41653 37.10223 36.89142 36.79848 36.65641 36.6335 36.56956 36.36161 36.28456 36.67855 37.26206 36.74765 36.26299 36.45555 35.53586 34.5252 33.7618 33.31798 32.97461 33.03091 33.03452 33.03701 33.03971 33.04097 33.0415 33.04153 33.04116 33.04047 33.0395 33.03827 33.03671 33.03487 33.03292 33.03085 33.02861 33.02713 33.02691 33.02778 33.0298 33.03276 33.0365 33.04096 33.04617 33.05206 33.05863 33.0715 33.09368 33.12004 33.14438 33.17177 33.20701 -9999 -9999 -9999 33.41236 33.38971 33.37313 33.36321 33.35902 33.36473 33.45817 35.42926 36.23761 36.64984 36.81492 37.02573 37.33097 37.69377 38.22825 38.52752 38.57438 37.60361 38.32968 39.60919 42.8065 45.83458 46.28378 46.23914 46.33012 46.75798 46.67685 48.01302 51.51505 53.49453 55.1859 56.24677 56.34726 56.67104 55.92604 54.53924 54.29705 54.08858 54.08211 54.1239 54.00716 54.07033 54.06914 54.02921 53.98426 54.52504 55.77411 57.25304 58.29168 58.13489 58.34362 58.66412 59.02344 59.15335 59.42884 59.63937 59.9224 60.08426 59.83006 59.60306 59.51271 59.31204 59.34106 59.01851 58.84833 58.83479 58.80852 58.77065 59.03031 59.14145 58.94626 59.26225 59.7445 59.57941 59.81853 59.6643 59.3285 59.953 59.43739 60.41283 60.00897 61.19614 60.36339 60.42575 60.39888 60.07503 60.37434 60.89094 62.75723 63.77939 63.49327 63.74718 64.00655 63.49997 63.1884 62.65081 63.23458 63.12541 60.5633 58.38107 57.21754 56.64989 56.72786 57.65164 57.76611 58.03432 58.29883 58.45482 58.02722 57.55023 56.89212 56.66714 56.54807 56.20887 55.99611 55.46682 55.33359 55.76065 55.43442 54.95482 55.10027 54.97674 54.55315 54.63071 54.39901 54.49041 54.16674 54.37304 54.32125 54.15673 54.01912 54.0306 54.17453 55.0005 55.77198 56.47189 56.02794 57.44146 59.95067 62.13905 62.49489 63.32434 65.04783 65.13181 64.98295 64.37759 64.13398 64.75134 64.59623 63.68634 62.59714 61.7518 60.93577 60.2151 59.83319 59.38738 59.06733 58.50464 57.89539 57.21996 56.5507 57.47207 57.39689 57.74207 58.07136 58.22171 57.87693 57.95818 57.88406 57.70721 58.35252 57.45253 57.15636 57.07584 57.07728 57.42215 57.82895 57.39149 57.35066 57.4214 57.49103 57.45625 57.42083 57.38073 56.35363 55.39809 56.19471 55.21312 54.76712 54.41621 54.09663 53.08836 52.8648 52.79367 52.39788 51.03732 52.54834 53.2525 54.92558 56.16216 55.98251 56.27253 56.17646 55.20811 51.46265 51.46857 51.41518 51.4842 51.49477 51.52769 51.55392 51.55991 51.62819 52.25421 52.8733 52.85209 52.06186 51.9179 51.85875
33.22397 33.29766 33.41077 33.53112 33.60734 33.77829 33.8306 34.00124 34.15714 34.31671 34.37048 34.42365 34.55033 34.71249 34.75987 34.83521 34.90432 34.98275 35.13334 35.15233 35.27936 35.49069 35.58604 35.70805 35.77026 35.78222 35.88471 36.12667 36.48856 36.71804 36.66724 36.60219 36.53514 36.1381 36.55008 36.44719 36.49574 36.43544 36.4481 36.70903 36.53261 36.37574 36.49881 36.58298 36.56214 36.40632 36.62287 36.30906 36.22779 36.02775 35.65233 35.39448 35.18964 35.19024 35.40226 35.18781 35.62117 36.33142 38.31609 38.50494 38.65858 38.57066 38.48005 38.49787 38.3301 38.0041 37.60569 36.98393 36.15028 35.93401 36.45261 36.20663 36.09503 35.74827 35.92615 35.65974 35.61336 36.42825 36.91083 36.54846 35.99665 35.42953 34.59975 34.0283 33.53249 33.16767 33.0516 33.05642 33.05374 33.04974 33.04943 33.04927 33.04899 33.04856 33.04789 33.04698 33.04589 33.04461 33.04313 33.04136 33.03941 33.0374 33.03528 33.03294 33.03022 33.02787 33.02655 33.02616 33.02679 33.02831 33.03072 33.03396 33.03801 33.04295 33.05853 33.08813 33.1166 33.1474 33.18956 -9999 -9999 33.37328 33.35591 33.34631 33.34257 33.34612 33.37323 33.38492 35.56161 36.35288 36.72794 37.06827 37.42181 37.80167 38.16646 38.45145 38.4462 38.64301 39.1359 38.82919 39.46655 41.5659 44.84137 46.25541 46.29496 46.40805 46.35313 47.11015 47.42807 48.759 51.77405 54.4876 56.4603 56.34906 56.48585 56.67904 56.63209 55.28856 54.6112 54.44962 54.37738 54.37349 54.36172 54.24497 54.16793 54.03458 55.13758 56.41375 57.73559 58.24203 58.18712 58.26307 58.41559 58.69451 59.48591 59.39963 59.65119 60.02657 60.10532 59.96263 59.83887 59.63861 59.50356 59.55419 59.4072 59.09332 59.01464 59.07306 59.07799 59.09613 59.17644 59.27929 59.34606 59.38873 59.34181 59.38263 59.60869 59.40465 59.05611 59.62673 59.1345 60.04995 60.15559 60.8327 61.65164 61.48397 62.20106 63.74582 64.3222 64.09267 64.07599 64.86921 65.36546 66.17702 64.98798 64.05386 63.68771 63.50879 63.70445 63.48366 61.64218 58.93144 57.78875 57.33698 57.05762 57.13279 57.83582 58.41063 58.60905 58.90024 59.24549 59.60395 59.79904 59.58345 59.38218 59.31459 59.28706 59.15074 59.05923 59.37227 58.93598 58.68822 58.90763 58.37779 58.55957 58.61982 58.92479 58.86554 58.05085 58.30845 57.98471 57.65836 57.65854 57.39863 57.46514 57.4735 57.65181 58.39614 58.92064 59.81056 61.71241 65.03977 65.29401 65.57822 65.85424 65.10526 65.10722 64.81892 64.41718 64.65855 64.97284 64.06483 62.94859 62.07632 61.21313 60.36694 60.06403 59.616 59.36662 58.83116 58.2475 57.78639 57.58741 57.65192 57.93044 58.16024 58.34568 58.45862 58.35909 58.35366 58.22237 58.21798 58.6452 57.44836 57.29887 57.24789 57.20337 57.21697 57.24001 57.26149 57.34516 57.427 57.46742 57.43914 57.40676 57.3936 56.56602 56.36958 56.10257 55.67163 55.4784 56.09268 54.78428 54.00956 53.63092 53.64019 54.07577 50.71995 52.27547 52.59071 52.38945 52.67108 52.56824 52.89848 54.64579 55.00092 51.63508 51.48826 51.56259 51.47935 51.47829 51.4741 51.52392 51.54213 51.91235 53.08833 52.96619 52.93058 52.37273 52.16574 52.0719
33.24774 33.33402 33.44578 33.54964 33.69684 33.8166 33.91676 34.08938 34.21814 34.2981 34.39253 34.52518 34.67292 34.77924 34.8527 34.85282 34.93441 35.03418 35.09704 35.23269 35.41198 35.57296 35.6403 35.85063 35.77571 35.73096 35.95056 36.31668 36.61057 36.68525 36.57373 36.51038 36.28183 36.14565 36.54039 36.28389 36.54617 36.59101 36.43734 36.61768 36.56816 36.34833 36.53844 36.41776 36.52333 36.44537 36.57368 36.35499 35.45364 34.24138 33.3334 33.09993 32.95973 32.97464 33.26833 34.38967 34.66013 35.18713 36.64812 38.14699 38.54881 38.73141 38.54868 38.56044 37.19878 36.42226 35.26621 35.02414 34.2048 33.94556 34.39803 33.97721 34.02407 33.91637 33.95954 34.10911 34.23227 34.81622 35.40685 34.97306 34.50146 34.43255 34.08239 33.35815 33.32888 33.2582 33.09877 33.075 33.06395 33.05731 33.05579 33.05567 33.05552 33.0551 33.05447 33.05362 33.05255 33.05124 33.0498 33.04814 33.04638 33.04455 33.04259 33.04048 33.03797 33.03498 33.03153 33.02774 33.02436 33.02156 33.0198 33.01915 33.01952 33.02095 33.02361 33.04223 33.08462 33.12601 33.1787 33.35459 33.33519 33.32538 33.32314 33.32717 33.34237 33.34899 33.30326 34.82027 36.4733 36.798 37.27163 37.39486 38.15617 39.2626 39.38592 39.15268 39.36748 39.19094 40.15242 41.30374 43.84981 45.48385 46.0646 46.347 46.25411 46.62615 46.64983 47.07777 48.04633 49.44895 51.07972 54.34855 56.71104 56.46444 56.63218 56.77191 56.95267 56.08401 55.00795 54.61084 54.63757 54.72969 54.68709 54.76482 54.58448 55.68581 57.1621 58.28334 58.15572 58.16687 58.16764 58.30104 58.44433 59.45344 59.59726 59.71074 60.02523 60.2384 60.08287 59.92413 59.86108 59.68 59.65299 59.31604 59.41568 59.45872 59.44432 59.32938 59.32661 59.3961 59.45816 59.56607 59.43324 59.50392 59.79636 60.31651 60.50939 59.40584 59.18411 59.35062 59.33929 59.72857 59.89138 60.94203 62.06945 62.78806 64.20017 65.68972 66.17312 66.86584 66.49993 66.30563 66.74241 67.58537 65.5828 64.92807 64.86653 63.96703 64.18383 64.19016 62.21427 59.41389 58.56813 58.03569 57.94027 57.75697 57.65137 57.99244 58.56618 59.25507 59.48206 59.83035 60.17004 60.49419 60.83645 61.24266 61.62368 61.87676 61.83275 61.82557 61.67503 61.78946 61.90626 61.73512 61.48342 61.81525 61.77222 61.63983 61.98672 61.62595 61.68847 61.48906 61.48697 61.25584 61.67552 61.45768 61.01736 60.95153 61.93877 63.31356 65.30585 67.10327 66.91957 67.00096 65.50098 65.17424 65.13938 65.0211 64.63931 65.01803 65.43182 64.97433 64.04045 62.98358 61.16 60.62459 60.46207 60.26963 59.81277 59.17385 58.73318 58.46809 58.3868 58.45815 58.65821 58.83165 58.93591 58.99665 58.95884 58.87991 59.15264 59.20961 59.18821 59.25165 58.67236 57.97411 57.492 57.35592 57.29268 57.30722 57.33576 57.39767 57.42115 57.43199 57.41829 57.47016 56.80537 56.81368 56.65709 56.0347 56.3278 57.10191 56.04695 55.00322 54.66612 54.45406 53.8761 51.40126 50.97194 50.93496 50.9842 51.31309 51.53191 51.92509 54.05814 54.76162 52.53847 51.12574 51.3682 51.59959 51.23809 51.44521 51.43089 53.61179 53.29693 53.43525 53.17521 52.905 52.62819 52.36295 52.21282
33.19025 33.25037 33.26638 33.33697 33.48031 33.67339 33.96033 34.13084 34.19593 34.38825 34.51225 34.59146 34.75061 34.8461 34.83513 34.88006 34.93302 35.0378 35.14578 35.45683 35.56016 35.54774 35.67337 35.76829 35.79644 35.6295 36.22989 36.60958 36.76187 36.62851 36.62144 36.52904 36.47561 36.24624 36.34293 36.30101 36.47668 36.44293 36.42429 36.50636 36.52964 36.31861 36.81334 36.75588 36.45244 35.94813 34.83469 33.84926 33.2464 33.02266 33.07657 33.08162 33.03267 33.01899 33.00717 33.01009 33.06406 33.374 35.28019 36.66647 37.10351 36.72984 36.00709 35.42136 34.57905 33.57827 33.085 33.0009 33.02057 33.01867 33.02285 33.02538 33.02602 33.02659 33.02339 33.10286 33.2816 33.45043 33.49728 33.60247 33.69 33.65731 33.35387 33.2818 33.20766 33.10094 33.07145 33.06176 33.05923 33.05698 33.05688 33.05824 33.05951 33.06029 33.06047 33.06002 33.05915 33.05802 33.05667 33.05516 33.05355 33.05198 33.05037 33.04863 33.04649 33.04382 33.04065 33.03704 33.03275 33.02781 33.0224 33.01658 33.01063 33.00478 32.99981 32.99706 33.01113 33.13375 33.20204 33.30005 33.30116 33.30942 33.31945 33.318 33.30159 33.30529 34.82011 35.90979 36.95319 37.22482 37.33078 38.39099 40.38677 41.44122 41.66078 40.82192 41.69423 42.47919 43.91351 44.97425 45.78857 46.14757 46.18713 46.09925 45.99178 46.44726 46.75235 48.0228 48.77398 49.71563 50.41401 53.49511 56.37187 56.58748 56.74569 56.90979 57.07325 56.6479 55.61176 55.01856 54.88223 55.04419 55.18423 55.81 55.86368 57.25708 58.24906 58.17421 58.14101 58.21716 58.27121 58.36352 59.48596 59.61431 59.79628 60.08577 60.45691 60.19955 60.12959 59.98094 59.81849 59.86064 59.35509 59.28805 59.41252 59.72831 59.86258 59.69472 59.73707 59.71785 59.79339 59.9206 59.73652 59.91816 60.05132 60.32861 60.18745 60.23522 60.79239 60.5655 60.86816 60.94182 59.89447 61.13836 63.27863 64.80952 66.89439 66.96939 66.508 67.19717 67.67395 66.85916 67.15997 65.93861 65.14954 66.12412 66.51762 66.00459 64.57742 64.3521 62.63419 60.45835 59.65604 59.40576 59.60573 59.49024 59.11006 58.70472 58.83144 58.89372 59.34879 59.82286 60.52076 60.83728 61.13744 61.48252 61.84489 62.23508 62.61822 62.95161 63.32586 63.70382 64.14549 64.39771 64.50415 64.68972 64.61728 64.37533 64.57544 64.54947 64.54075 64.50681 64.69462 64.60954 64.57681 64.56927 65.11538 65.04044 65.37337 65.7209 66.92064 68.16357 68.21951 69.01206 66.09833 65.19669 65.11993 65.01126 64.84313 65.0031 65.22348 65.32721 65.14938 64.57347 62.51098 61.00672 60.94747 60.82618 60.23092 59.3855 59.27823 59.13652 59.13381 59.2449 59.41909 59.5389 59.58424 59.69115 59.59492 59.64734 59.90543 59.87695 59.95023 60.23933 60.56863 60.16963 60.04584 59.46577 58.37154 57.32668 57.44162 57.52597 57.45319 57.47279 57.4579 57.44075 57.76377 57.66172 57.8297 56.89524 56.92075 57.47093 56.81374 55.69276 55.54922 55.38109 54.31887 53.92959 53.98638 53.50805 53.48082 53.18668 53.31522 53.46307 54.36842 54.8278 54.51973 53.87886 53.15659 53.16335 53.54703 53.93744 54.21396 53.92587 54.13703 53.83088 53.45652 53.04379 52.80461 53.58064 54.44389
33.20693 33.19447 33.18012 33.16297 33.14135 33.11182 33.06652 33.00979 32.94307 32.89408 32.93972 32.96164 33.23693 33.62671 33.86533 34.2234 34.58549 34.81181 35.07582 35.26924 35.45689 35.52122 35.67795 35.74895 35.62987 35.73876 36.15626 36.68959 36.72523 36.41768 36.51928 36.30558 36.43317 36.4065 36.25774 36.12592 36.18455 36.31243 36.38464 36.34742 36.19576 35.78323 35.44985 34.86772 34.32154 33.66124 32.98511 32.99603 32.99892 33.00711 33.01033 33.01031 33.00914 33.00843 33.0089 33.01036 33.01023 33.00343 33.35707 34.07666 34.07303 33.80013 33.44352 33.10423 33.00978 33.00745 33.01247 33.01668 33.02013 33.02438 33.0302 33.03772 33.04742 33.05979 33.07632 33.09843 33.12391 33.15444 33.19553 33.22552 33.188 33.04419 33.02529 33.01291 33.00179 33.05773 33.05914 33.05729 33.05763 33.0577 33.05812 33.05984 33.06202 33.06385 33.06518 33.06576 33.06556 33.06476 33.06368 33.06239 33.06096 33.05962 33.05836 33.05709 33.0555 33.05338 33.05069 33.04756 33.04371 33.03897 33.0337 33.02816 33.02233 33.01635 33.01024 33.00504 33.09765 33.25494 33.30411 33.28627 33.29141 33.29479 33.29887 33.30259 33.2965 34.53269 35.73148 37.02676 37.62614 37.7936 39.45796 41.15658 43.93494 44.49278 44.47437 44.35296 45.23176 45.14064 45.92915 46.02673 46.25743 45.59668 46.19891 46.38274 46.1353 46.82853 47.49023 48.78242 48.97018 50.188 51.76133 54.03633 56.47969 56.65382 56.8881 57.0154 57.2932 56.72526 55.93755 55.30867 55.16227 55.50018 55.56533 56.59427 57.24374 58.16386 58.14373 58.14857 58.18969 58.30367 58.77607 59.53 59.81653 60.12563 60.40074 60.59098 60.32909 60.26849 60.15134 59.96899 60.01694 59.59696 59.52311 59.50629 59.63612 59.90877 60.53442 60.27326 60.43248 60.10431 60.181 60.51083 60.89494 61.52871 61.10325 61.28545 61.23946 61.36052 61.46534 61.22 61.39427 61.02143 60.81701 62.11393 65.11364 66.23469 66.75025 67.26384 67.45164 68.57568 68.61008 68.26125 67.4479 65.80345 65.20216 66.0453 65.93967 65.58097 66.10197 66.2174 63.32314 62.01283 61.758 61.95361 61.8506 61.66765 60.93349 60.23942 60.28378 59.84236 60.01875 59.86922 60.10168 60.79778 61.1754 61.66401 62.05648 62.50764 62.89931 63.23552 63.54331 63.90169 64.27296 64.65081 65.06178 65.46646 65.84228 66.19658 66.65446 66.9169 67.03309 67.18259 67.35703 67.1638 67.10286 67.06732 67.13194 67.39979 67.27605 67.49161 68.18337 68.38302 68.48991 68.87028 67.48218 66.24339 65.24718 65.24886 65.20432 65.11222 65.23249 65.28475 65.2827 64.91808 63.96841 62.02339 61.41596 61.45761 61.14543 60.60412 60.15781 59.87857 59.84594 60.03303 60.26024 60.20135 60.22186 60.35387 60.28223 60.27528 60.45224 60.47909 60.58093 61.69175 61.85677 62.05233 62.17645 62.15609 61.43377 58.72766 57.3703 57.52454 57.56376 57.57377 57.51625 57.70979 58.9202 58.99246 58.58952 57.88485 57.67088 58.24088 57.39557 57.06297 56.59092 56.21939 55.66267 55.09864 54.42148 54.69928 54.65189 54.49309 54.78734 54.69316 55.14886 55.12965 55.14573 54.93396 54.44747 54.65845 55.45132 55.51445 55.55621 54.60655 54.31724 54.00712 53.58336 54.55929 55.12457 55.02572 55.1722
33.22472 33.21755 33.2072 33.19614 33.1842 33.17116 33.15673 33.14048 33.12183 33.09983 33.07302 33.0389 32.999 32.96 32.92586 32.9118 32.90814 32.907 32.90554 33.00711 33.21676 33.43637 33.68467 33.7487 33.81419 33.9142 34.06525 34.16133 34.19329 34.15463 34.16252 34.19179 34.27211 34.19854 34.03977 34.0277 34.01731 33.98878 33.89227 33.80027 33.67218 33.49857 33.24261 32.95032 32.96888 32.97176 32.9761 32.9804 32.98446 32.98783 32.99033 32.99198 32.99286 32.99324 32.99323 32.99258 32.99036 32.98598 32.98044 32.97885 32.97856 32.98808 32.99894 33.008 33.01467 33.01925 33.02238 33.02601 33.03066 33.03669 33.04448 33.05443 33.06687 33.08031 33.09423 33.10873 33.12363 33.13682 33.14739 33.15137 33.14922 33.13396 33.09959 33.05315 33.04763 33.0637 33.06324 33.06085 33.06062 33.06151 33.06186 33.06276 33.06465 33.06684 33.06901 33.0706 33.07141 33.07135 33.07067 33.06974 33.06859 33.06749 33.06657 33.06576 33.06483 33.06338 33.06133 33.05886 33.05564 33.05122 33.04614 33.04101 33.03588 33.0312 33.02758 33.03078 33.08215 33.2358 33.27167 33.29307 33.30337 33.30826 33.31215 33.32052 33.91022 35.7066 37.63331 39.25739 40.8245 41.2334 42.62401 45.29055 45.01377 44.71425 45.45341 47.2689 45.98804 45.85943 46.17487 46.16196 46.55669 45.68025 45.83564 46.09874 47.20737 48.04454 49.20669 49.58647 50.30988 51.09106 51.8945 54.95283 56.68564 56.85365 56.97681 57.1177 57.38589 56.97405 56.20822 55.74871 55.65906 55.78303 56.06018 56.39286 56.9803 58.08777 57.96041 58.10416 58.30502 58.74527 59.17042 59.5496 59.99992 60.35241 60.58144 60.47945 60.37248 60.28286 60.208 60.24115 59.76093 59.87099 59.69494 60.05086 60.01558 60.24912 60.75766 60.46673 60.46124 60.55137 60.50639 61.14325 60.94845 61.01254 60.84697 60.6344 60.73375 60.7819 61.13425 61.07365 61.39601 62.46893 63.66474 65.04623 66.02371 66.66374 67.5429 67.62783 68.63397 68.79789 68.85052 68.72842 68.61746 67.08971 66.66584 67.65063 67.10328 66.60139 66.93317 66.44942 64.23054 64.16109 64.4128 64.85339 64.45687 63.89844 63.065 62.76205 62.81814 62.27169 62.49866 63.02239 62.66693 62.11662 62.34394 62.53099 62.57949 62.8893 63.44879 62.95968 63.58771 63.93376 64.34165 64.92817 65.31168 65.66708 66.05255 66.36697 66.72774 67.07397 67.4094 67.75454 68.07428 68.41705 68.79243 69.08321 69.21875 69.14789 69.27083 69.19534 69.2179 69.07066 68.98557 69.39948 69.38567 68.26158 68.99065 67.45342 66.58025 66.39542 66.42261 66.43518 65.23022 64.50441 64.25331 63.74702 63.30783 63.10076 62.58591 62.03679 61.46511 60.90097 60.29235 61.0033 61.48497 61.26069 61.00553 61.04532 60.92897 63.32461 61.82521 61.70807 61.87991 62.29988 62.75589 62.9333 63.25729 63.70356 63.69219 62.33516 60.95664 60.12549 58.39549 57.40405 57.48503 58.8762 59.93006 59.82998 58.77703 58.33432 58.62548 58.93961 58.17379 57.82347 57.3756 56.91404 56.86434 56.054 55.7567 56.08332 56.26884 55.69658 55.80589 56.51044 55.93625 55.85408 55.68283 56.02394 56.15858 56.27966 56.15135 55.93641 55.75489 54.78476 54.60217 54.2397 55.33951 55.411 55.34398 55.35068 55.35397
33.24357 33.2385 33.23053 33.22124 33.21156 33.20143 33.19078 33.17954 33.16759 33.15482 33.14104 33.12604 33.10954 33.09117 33.07039 33.04648 33.0184 32.98868 32.96186 32.9397 32.92573 32.92236 32.91953 32.91738 32.91885 32.92392 32.92823 32.9316 32.9338 32.93422 32.93419 32.93422 32.93486 32.93671 32.93843 32.93964 32.94084 32.94204 32.94362 32.94596 32.94944 32.95371 32.95888 32.96368 32.96827 32.97258 32.9766 32.98023 32.98389 32.98713 32.98992 32.99199 32.99321 32.9936 32.99356 32.99411 32.99514 32.99655 32.99778 32.9987 32.99975 33.0009 33.00227 33.00581 33.0109 33.01753 33.02479 33.03298 33.04132 33.04953 33.05826 33.06785 33.07797 33.08862 33.09976 33.11074 33.12082 33.12944 33.13497 33.13843 33.13921 33.13514 33.12091 33.09966 33.08596 33.08075 33.07657 33.07065 33.06722 33.06658 33.06686 33.06766 33.06865 33.07027 33.07242 33.0748 33.07661 33.07756 33.07758 33.07708 33.07643 33.07561 33.07501 33.07465 33.07444 33.07384 33.07261 33.071 33.06858 33.06444 33.05958 33.05503 33.05111 33.04853 33.04889 33.03453 33.31257 33.32693 33.33608 33.30476 33.36231 33.33102 33.32718 34.09734 35.51047 37.59417 40.80233 42.7719 43.12085 44.10995 44.98031 46.20452 45.51521 45.75521 45.613 45.86716 46.10007 46.27702 46.47733 49.8507 48.48788 46.72466 46.4788 47.68382 48.47033 48.9888 50.10683 50.65397 51.92321 52.41008 53.21729 56.07693 56.81246 56.93628 57.09034 57.23709 57.48661 57.16708 56.5802 56.12692 56.15122 56.20948 56.36288 56.83804 57.09402 57.54056 57.79927 58.1297 58.42103 58.84378 59.2804 59.65986 59.98106 60.69016 60.49335 60.50078 60.4149 60.32906 60.44712 59.98551 60.15969 61.02175 61.64929 62.08485 62.25996 61.72758 61.70128 61.07602 60.93258 61.22364 60.8121 60.66587 60.65178 60.69541 60.94 60.93838 61.1725 61.39796 61.4938 61.26764 61.54927 63.69856 66.99849 67.50726 67.47557 67.91579 68.46918 68.67281 69.36836 69.49156 69.58347 69.23921 68.8593 68.20993 67.83859 68.03915 67.92734 67.74654 67.41789 66.89526 66.10213 66.7233 67.47207 67.33653 66.57502 65.82238 65.64994 65.6736 66.14388 66.17062 66.36478 65.78922 66.06298 65.60558 65.63117 65.32068 65.17326 65.40532 65.57404 65.63574 65.66016 65.11725 65.32299 64.87626 65.29218 65.32413 65.85213 66.1901 66.67004 67.1631 67.56303 67.83575 68.16 68.46484 68.76788 69.08965 69.3623 69.65172 69.91496 70.17076 70.46877 70.75332 70.95305 70.82643 70.88277 70.79522 70.41485 70.11074 69.72453 69.53955 69.12052 69.14265 68.13641 67.82639 67.62778 66.86999 66.03541 65.15662 64.35947 63.59419 62.95696 62.47858 61.93323 61.8464 62.33574 62.44498 61.89475 61.61773 61.54688 63.41459 63.3176 62.97511 62.99088 63.12122 63.26304 63.43125 63.74863 63.6768 63.57449 63.61684 63.66807 62.0635 61.06668 60.62067 59.98067 60.13028 60.29527 60.01326 60.45795 59.97664 58.76519 58.74013 58.49099 58.01347 57.99652 57.46627 56.65736 56.72804 57.1427 57.70406 57.48861 56.25401 56.15337 56.2481 56.26169 56.07806 56.13198 56.25681 56.16489 56.29358 56.22749 55.98608 55.7164 55.10257 54.93664 54.86622 55.44029 55.59188 55.56594 55.44809 55.52458
33.26411 33.25887 33.25338 33.24524 33.23672 33.22798 33.21897 33.20968 33.20006 33.19007 33.17968 33.1688 33.1574 33.14537 33.13262 33.11904 33.10445 33.08869 33.07153 33.05262 33.03152 33.00792 32.98551 32.96611 32.95086 32.94207 32.94014 32.93892 32.93843 32.93923 32.9422 32.94527 32.94804 32.95049 32.95256 32.95421 32.95545 32.95675 32.95837 32.96042 32.96307 32.96582 32.96835 32.971 32.97395 32.9771 32.98047 32.98403 32.98756 32.99081 32.99364 32.99575 32.99762 32.9994 33.00146 33.00364 33.00563 33.00742 33.00911 33.01072 33.01212 33.01363 33.01542 33.01734 33.01994 33.02411 33.02948 33.03672 33.04544 33.05541 33.066 33.07616 33.08551 33.09457 33.10357 33.11233 33.12048 33.12691 33.132 33.13574 33.13744 33.13546 33.12801 33.12036 33.11284 33.10393 33.0935 33.08501 33.07903 33.07446 33.07306 33.07296 33.07389 33.07473 33.07616 33.07854 33.08122 33.08323 33.08424 33.08436 33.08425 33.08409 33.08379 33.08381 33.08416 33.08461 33.08452 33.08412 33.08278 33.07864 33.07427 33.07093 33.06976 33.07162 33.04368 33.0214 33.54485 33.99857 34.76521 34.26469 34.73378 34.98772 35.5114 36.20821 38.13846 40.77266 43.88173 45.67223 45.43788 45.45922 45.84768 45.81336 45.79028 45.63728 46.03368 46.152 46.14619 47.89124 51.89057 56.06388 53.06873 48.81335 49.20467 49.87051 50.76965 51.28595 51.84338 52.42207 52.97107 53.71277 54.52111 56.60743 56.87402 57.01517 57.19433 57.36724 57.47511 57.44403 56.95297 56.47995 56.56903 56.6918 56.92126 57.41912 57.49555 57.9036 58.26722 58.52851 58.87589 59.23103 59.61123 60.07729 60.82402 60.55532 60.58237 60.53542 60.4895 60.5603 60.17443 60.20853 61.09098 63.09706 63.77556 64.49771 64.5211 64.33257 64.5441 64.41689 64.48473 64.12964 63.51027 63.51513 63.11875 63.06992 62.78793 62.54211 62.7405 62.97529 62.86306 62.9803 63.65875 65.80621 68.53893 68.67229 68.66573 68.86087 69.05827 69.35547 70.37213 70.46885 70.44442 70.13773 69.81975 69.15267 69.00397 68.75541 68.75095 68.87025 68.97648 69.05779 68.61485 70.06705 70.50926 69.82968 68.72097 68.66804 68.58638 69.00594 69.46899 69.44337 69.32751 69.28773 68.92001 68.55919 68.25923 68.20665 68.77981 68.89188 69.04028 69.18832 69.34539 68.86575 68.60052 68.95171 68.24968 68.54241 68.42427 68.38576 68.09119 67.93021 67.30238 67.48182 67.76601 68.04704 68.4502 68.95186 69.35624 69.58541 69.82002 70.08619 70.33163 70.61562 70.87425 71.15176 71.40891 71.69099 71.99535 72.37431 72.44164 72.34866 72.0575 71.67216 71.30235 71.08944 70.74164 70.25503 69.83134 69.09131 67.88393 66.74841 65.73282 65.07584 64.19482 63.3339 63.08587 62.66092 62.28038 62.13278 62.12836 63.43795 63.95465 63.89064 63.90924 63.83961 63.79279 63.79394 63.78956 63.59447 63.51722 63.58317 63.58267 63.63533 63.3133 62.81492 62.65741 61.96934 60.94302 61.24339 61.1088 60.83625 59.80124 59.62258 59.07601 58.64188 58.43106 56.72762 57.31435 58.39209 58.47166 58.28712 56.51068 56.30267 56.26275 56.28563 56.32414 56.32986 56.28128 56.21793 56.23312 56.34392 56.25314 56.05045 55.70774 55.43731 55.3517 55.43149 55.60592 55.72 55.7253 55.59645 55.58823
33.28556 33.28028 33.27483 33.26879 33.26097 33.25301 33.2449 33.23662 33.22816 33.21951 33.21064 33.20153 33.19217 33.18251 33.17253 33.16219 33.15144 33.14024 33.12849 33.11613 33.10308 33.08921 33.07438 33.0584 33.04103 33.02192 33.00251 32.98553 32.97169 32.96215 32.95874 32.95819 32.95809 32.95869 32.96041 32.96325 32.96605 32.9687 32.97121 32.97359 32.97571 32.97755 32.97939 32.98151 32.98391 32.98662 32.98935 32.99191 32.99429 32.9966 32.99901 33.00161 33.00442 33.00733 33.01019 33.01273 33.01499 33.01706 33.0191 33.02102 33.02288 33.02474 33.02668 33.02894 33.03156 33.03468 33.03891 33.04453 33.05156 33.06005 33.06955 33.07928 33.0894 33.09901 33.10754 33.11517 33.12175 33.12754 33.13264 33.13673 33.13906 33.13808 33.13454 33.13138 33.12825 33.12217 33.1128 33.1011 33.09282 33.08686 33.08145 33.07943 33.07928 33.08012 33.08056 33.08213 33.08527 33.08828 33.0904 33.09143 33.09196 33.09249 33.09308 33.09349 33.09418 33.09518 33.09653 33.09805 33.09842 33.09351 33.09083 33.09329 33.10315 33.04737 33.02671 33.05384 34.67391 36.36319 37.53682 37.49711 36.91589 36.67583 36.72427 38.11068 41.36018 44.54863 45.40232 45.7216 45.51394 46.08517 46.12637 45.74035 45.90039 46.07033 45.94312 46.59986 49.41564 53.11922 57.07341 58.03016 56.07269 53.02513 51.96012 52.97036 53.5591 53.76988 53.95434 54.44944 54.18352 54.94628 56.31792 56.87978 56.98526 57.1189 57.31093 57.53015 57.62355 57.71811 57.4018 56.98599 57.00935 57.18982 57.41406 57.69744 57.94632 58.27284 58.58468 58.88463 59.22817 59.58955 60.24286 60.7469 60.62474 60.62043 60.60328 60.59364 60.70813 60.41739 60.55809 61.10788 62.32372 63.50375 64.42602 65.34608 66.05694 66.36504 67.1741 67.62042 68.05275 67.97078 67.89869 67.91977 67.67014 66.89119 66.47712 66.13625 66.06921 65.95052 66.34299 66.24657 67.45227 68.89687 69.40339 69.68998 69.57249 69.73383 70.43049 70.96587 71.31066 71.68938 71.76086 71.45955 71.09523 70.94192 70.85488 70.67065 70.15744 70.41015 70.89003 70.84089 71.42781 72.64735 72.76699 72.51751 71.47594 71.68971 72.20078 72.6681 72.71148 72.48371 72.50343 72.42876 72.02319 72.25736 72.20339 72.17154 72.16946 71.82181 72.44115 72.63754 72.64718 72.42639 72.54281 72.41347 72.18977 71.85411 71.49057 71.9072 71.65401 71.70556 71.30172 70.96622 70.76679 70.15813 70.02663 69.97655 69.80602 69.43369 69.09616 69.27037 69.68041 70.23253 70.74278 71.01614 71.27778 71.55843 71.8049 72.10986 72.38923 72.6918 72.97533 73.25719 73.65415 73.50655 73.39031 73.16315 72.48672 72.05637 71.41692 70.22206 69.13113 68.65946 67.97109 66.70554 65.42335 64.67935 63.3248 62.59414 62.66288 63.32676 63.91757 63.94645 63.9468 63.96001 63.90875 63.84109 63.78418 63.57009 63.54004 63.59581 63.60542 63.67278 63.6772 63.75203 64.2946 64.42092 62.47083 61.94082 62.67131 61.47139 60.89953 60.24431 60.04016 59.62432 58.69601 57.45642 59.0313 59.29697 59.03551 57.12654 56.59904 56.65686 56.55513 56.5397 56.53122 56.44018 56.46552 56.47585 56.48354 56.46322 56.37854 56.25473 56.02076 55.80303 55.72747 55.87535 55.92216 55.90259 55.89053 55.92834 55.88443
33.30746 33.30217 33.29675 33.29119 33.28473 33.27729 33.26975 33.26211 33.25436 33.24649 33.2385 33.23037 33.22209 33.21365 33.20503 33.19622 33.18719 33.17793 33.1684 33.15859 33.14847 33.13799 33.12712 33.1158 33.10395 33.09151 33.07835 33.06436 33.04935 33.0331 33.01614 33.00125 32.98914 32.98059 32.97691 32.97684 32.9772 32.97814 32.97986 32.98253 32.98531 32.98799 32.99055 32.993 32.99528 32.99732 32.99916 33.00108 33.00317 33.00552 33.00801 33.01048 33.01296 33.01551 33.0181 33.02075 33.02346 33.02612 33.02858 33.03083 33.03288 33.03498 33.03718 33.03966 33.04247 33.0457 33.04951 33.05426 33.05994 33.06642 33.07379 33.08244 33.09179 33.1011 33.1103 33.11825 33.12461 33.13012 33.13515 33.13951 33.1423 33.1424 33.14113 33.13991 33.13867 33.13536 33.12875 33.11839 33.10759 33.10018 33.09385 33.08751 33.08535 33.08553 33.08591 33.08603 33.08852 33.09265 33.09603 33.09815 33.09942 33.10067 33.1021 33.10364 33.10529 33.10646 33.10803 33.1106 33.11244 33.10738 33.12342 33.2809 33.65636 34.2815 33.33839 33.07742 34.1642 37.42471 39.90263 41.42109 40.59005 38.48921 38.06144 39.68383 44.49617 45.58785 45.4172 46.08295 46.09463 46.06026 45.79328 45.98587 45.96832 46.13231 48.46017 52.28762 57.03576 59.91877 60.27719 59.49685 57.63281 56.14316 55.27962 55.24935 55.21925 54.46874 54.48992 54.99705 54.92612 56.27589 57.01125 57.12518 57.18591 57.50037 57.40627 57.63902 57.79301 58.06636 57.88314 57.66019 57.611 57.76432 57.94139 58.14829 58.36475 58.69262 59.02185 59.34251 59.77818 60.26917 60.79003 60.64798 60.67226 60.6804 60.71553 60.87333 60.83313 61.49538 62.26153 63.09475 63.88946 64.62473 65.21458 66.00953 67.01307 67.63869 68.01373 68.36725 68.70821 69.16943 69.52576 69.63477 69.8705 69.84747 69.84196 69.90416 70.01149 69.76322 70.15587 70.07844 70.35942 70.94241 71.25821 71.63589 71.97704 71.58989 72.6084 72.33133 72.79266 73.24377 73.37624 73.17209 73.2638 73.46213 73.28568 73.47858 73.8113 73.95798 74.47018 74.63075 74.67445 75.0921 74.987 75.22685 75.20246 75.31085 75.54667 75.50102 75.73309 75.78424 75.53957 75.74583 75.4307 75.82761 75.56812 75.64726 75.37688 75.54646 75.63687 75.46603 75.48827 75.45175 75.47031 75.49206 75.02845 75.27336 75.0132 74.95565 74.87098 74.65907 74.23351 74.46919 74.24883 73.79951 73.27829 72.97029 72.61531 72.21178 71.97258 71.98673 71.55952 70.92027 70.68269 70.58688 70.67744 71.0847 71.5245 71.8755 72.23852 72.50335 72.77069 73.05733 73.37318 73.65833 73.96848 74.31042 74.6039 74.48216 74.06317 73.39056 72.81287 71.95266 70.89272 69.76189 68.90182 67.78427 65.99834 63.09906 62.99492 63.27468 63.6206 63.75977 63.83031 63.8658 63.83014 63.80602 63.71175 63.63839 63.64985 63.65543 63.70593 63.76302 63.79312 63.88538 64.06533 65.10372 64.86756 63.30008 62.77953 62.21133 61.86978 62.10349 61.14834 60.2215 58.8429 58.58274 59.62563 59.20282 59.01902 56.81606 56.74773 56.66999 56.61223 56.64432 56.6022 56.64065 56.63811 56.64019 56.62607 56.55738 56.43707 56.28711 56.19728 56.14465 56.09378 56.09598 56.01924 56.07459 56.36398 56.01855 56.08913
33.32965 33.32438 33.31899 33.31349 33.30786 33.30117 33.29403 33.28683 33.27955 33.2722 33.26477 33.25725 33.24964 33.24192 33.2341 33.22617 33.21811 33.20991 33.20158 33.19308 33.18442 33.17557 33.16651 33.15722 33.14769 33.13786 33.12772 33.11721 33.10628 33.09488 33.08294 33.07035 33.057 33.04263 33.02779 33.01493 33.00469 32.99775 32.99504 32.99537 32.99611 32.99735 32.99925 33.00191 33.0046 33.00715 33.00953 33.01178 33.01392 33.01591 33.01787 33.02004 33.02239 33.02489 33.02736 33.02975 33.0322 33.03465 33.03719 33.03978 33.04235 33.04484 33.04729 33.04985 33.05277 33.05609 33.05993 33.06417 33.0689 33.07429 33.08027 33.08715 33.09485 33.10353 33.11222 33.12032 33.12764 33.13377 33.13894 33.14337 33.14656 33.14771 33.14786 33.14773 33.14745 33.14574 33.14142 33.13364 33.12348 33.11393 33.10694 33.09935 33.09264 33.09071 33.09115 33.09049 33.09174 33.09629 33.10079 33.10418 33.10646 33.10854 33.11069 33.11319 33.1159 33.11853 33.12217 33.12722 33.14472 34.43461 35.43121 37.08004 37.42188 36.90881 36.28054 34.76742 35.20419 36.95901 40.54249 41.32967 41.36342 42.27874 41.26692 42.99406 45.52857 45.97206 45.97391 45.86921 45.80894 46.02845 46.05548 46.55192 47.82279 49.93579 56.9927 61.12383 62.31008 62.40316 61.56078 60.11619 58.99332 58.07784 57.06535 56.48292 55.97915 55.33207 55.20259 55.57824 56.47874 57.2984 57.3189 57.24588 57.3598 57.69367 57.52547 57.77253 57.93189 58.06271 58.4079 58.30085 58.24404 58.24632 58.48212 58.66286 58.91415 59.24683 59.6016 60.0755 60.57717 60.75662 60.63493 60.70918 60.72679 60.74421 60.91547 62.16739 63.0295 63.53242 64.36737 65.36946 66.39392 66.36453 68.03005 67.42415 67.75352 68.19659 68.52727 69.07475 69.18373 69.70496 69.9899 70.20513 70.65103 71.14542 71.34932 71.54948 71.76836 72.12769 72.32593 72.83053 73.11054 73.48331 74.01501 74.23833 74.59776 74.95843 75.34839 75.45017 75.83376 76.3719 76.73531 76.511 76.64312 76.65068 76.72908 76.96058 77.1021 77.39211 77.60696 78.02822 78.03249 78.08032 78.21628 78.43893 78.39323 78.58342 78.4227 78.44791 78.46408 78.60558 78.81587 78.82293 78.73475 78.96233 78.92199 78.91307 79.0176 78.92359 79.02291 78.88062 78.60781 78.83253 78.63219 78.56847 78.32571 78.59868 78.28237 78.10731 77.96436 77.64059 77.47662 77.2352 77.05112 76.83993 76.64822 76.15022 75.80714 75.58997 75.02444 74.91531 74.43297 73.89231 73.61517 73.47897 72.70682 72.6329 72.11372 71.85811 71.66878 71.85754 72.20824 72.65188 73.14023 73.49126 73.8169 74.10181 74.40524 74.72501 75.02769 75.38152 75.50347 74.98862 74.07535 73.13979 72.26754 71.05463 69.88522 67.20921 63.25789 63.37378 63.63635 63.755 63.79028 63.84195 63.83169 63.77195 63.73671 63.69355 63.7216 63.78532 63.81405 63.85764 63.90535 64.13891 64.82098 65.65498 66.48746 65.6437 64.21561 63.28917 62.55008 62.69855 61.31971 60.77242 58.98537 58.20276 59.32975 58.54448 58.00311 56.74587 56.67687 56.69603 56.7008 56.64373 56.62938 56.74969 56.76003 56.77696 56.75573 56.65505 56.45218 56.4227 56.3759 56.3541 56.27533 56.18474 56.59061 58.96475 59.61286 58.11056 58.04487
33.35205 33.34678 33.34143 33.33599 33.33045 33.32472 33.31796 33.31107 33.30414 33.29715 33.29011 33.28301 33.27584 33.26862 33.26132 33.25396 33.24651 33.23899 33.23138 33.22367 33.21586 33.20794 33.19989 33.19172 33.18339 33.17492 33.16626 33.15742 33.14837 33.1391 33.12956 33.11975 33.10962 33.09913 33.08821 33.07676 33.06464 33.05164 33.0386 33.02766 33.01929 33.01413 33.01299 33.01365 33.01468 33.01618 33.01832 33.02097 33.02356 33.02606 33.02846 33.03073 33.03285 33.03484 33.03694 33.03922 33.04164 33.04406 33.04641 33.04881 33.05128 33.05391 33.05671 33.05966 33.06272 33.06602 33.06974 33.07371 33.07796 33.08257 33.0878 33.09359 33.09993 33.10701 33.11476 33.12263 33.13007 33.13716 33.14328 33.14802 33.15155 33.15351 33.15464 33.1553 33.15564 33.15497 33.15224 33.1468 33.13826 33.1287 33.12039 33.11253 33.10183 33.09652 33.09574 33.09497 33.09479 33.09954 33.10513 33.10956 33.11275 33.11578 33.11839 33.1218 33.12553 33.13049 33.13924 33.18355 35.85911 37.63065 38.79886 41.03008 41.06704 40.0102 38.026 36.67466 37.21839 36.48734 37.8007 40.42066 41.7546 42.30119 43.34265 46.23204 46.29886 46.14675 45.73037 46.00965 45.949 46.76389 50.39038 52.2267 54.41669 59.30138 63.78028 64.03497 64.09038 63.48567 61.95648 60.56705 59.59896 58.63608 57.68861 57.23215 56.88687 56.5398 56.66728 57.51573 57.73233 57.6409 57.54656 57.54103 57.82385 57.89154 57.65946 57.88186 58.0845 58.28605 58.47738 58.83579 58.88778 58.99914 59.14618 59.33407 59.59166 59.9432 60.42971 60.71201 60.62326 60.62986 60.71534 60.78183 60.79378 61.04765 63.10942 65.20201 66.24396 66.40733 67.00792 67.87309 68.84502 69.53429 69.95052 70.15249 70.40004 70.88776 71.12419 71.65464 72.00707 72.48206 72.64747 73.10215 73.59516 74.10248 74.36013 74.52853 74.83908 75.31116 75.82299 76.06053 76.30862 76.62775 76.90118 77.13209 77.3921 77.53753 77.8197 77.96565 78.18063 78.32149 78.54557 78.5344 78.6614 78.73797 78.85275 78.8754 78.95486 79.05859 79.10986 79.22533 79.28214 79.35744 79.45964 79.53935 79.60137 79.65797 79.70927 79.77476 79.82318 79.85767 79.8859 79.95282 79.97717 80.01075 80.07447 80.11153 80.14715 80.20404 80.21212 80.26337 80.32847 80.3455 80.39502 80.38741 80.38922 80.38992 80.3699 80.32888 80.23893 80.40352 80.10903 80.00368 79.95559 79.82951 79.77531 79.4361 79.19186 78.85258 78.42144 78.17533 77.81908 77.23843 77.06307 76.70676 76.20852 75.93071 75.23119 74.65977 74.04025 73.52377 73.15672 72.8034 72.55553 72.79835 73.22635 73.75764 74.22588 74.6216 74.88317 75.21046 75.51655 75.83038 76.2115 76.18176 75.36144 74.32211 73.27138 72.24369 69.91035 68.13533 66.74159 65.87727 64.94511 63.84803 63.82103 63.78271 63.75585 63.77221 63.79594 63.83133 63.85661 63.91843 64.19827 64.92648 65.6025 66.30938 66.91467 67.38219 67.47772 66.61581 64.83873 63.40512 62.36995 61.93096 60.43889 58.54851 58.35379 58.14613 57.43143 57.40571 57.01292 56.76704 56.76772 56.7641 56.80056 56.82787 56.89295 56.74992 56.92485 56.62148 56.46154 56.50849 56.77603 56.65914 56.6584 57.44494 59.17259 60.14525 60.16013 59.65828 59.41176
33.3746 33.36933 33.36401 33.35862 33.35315 33.34759 33.34165 33.335 33.32832 33.32161 33.31485 33.30806 33.30122 33.29435 33.28743 33.28046 33.27344 33.26637 33.25923 33.25204 33.24478 33.23745 33.23005 33.22255 33.21497 33.20729 33.19952 33.19164 33.18364 33.17551 33.16725 33.15886 33.1503 33.14156 33.13262 33.12345 33.11402 33.10426 33.09411 33.08347 33.0722 33.06015 33.04891 33.03985 33.03345 33.03039 33.03074 33.03174 33.03318 33.03514 33.03769 33.04028 33.04278 33.04516 33.04745 33.04958 33.05158 33.05368 33.05594 33.05837 33.06081 33.06328 33.06591 33.06879 33.07198 33.07551 33.07917 33.0829 33.08683 33.09101 33.09567 33.10077 33.10629 33.11229 33.11869 33.12556 33.13295 33.14017 33.14712 33.15291 33.15701 33.15965 33.16147 33.16278 33.16367 33.1637 33.16228 33.15834 33.1517 33.14307 33.13428 33.12623 33.11521 33.10336 33.09969 33.09862 33.09681 33.10173 33.10871 33.11449 33.11905 33.12319 33.1259 33.12926 33.13338 33.14193 33.15496 34.83456 38.24958 40.71475 42.12035 42.84118 43.01926 42.52665 41.41519 39.42229 39.50751 38.44421 38.35501 39.80516 41.91722 43.58202 45.75692 46.19224 45.70412 45.95134 45.95004 46.52064 48.82492 52.31307 59.45267 63.92787 65.36055 66.39394 66.07757 65.68093 64.44697 63.28996 62.30994 61.41993 60.35951 59.31068 58.64514 58.16644 58.09835 58.26978 58.27093 58.18187 58.07348 57.89506 57.80261 57.99978 58.1382 58.04623 57.78246 58.01139 58.19571 58.44691 58.60377 58.84288 59.18066 59.42843 59.6882 59.92797 60.21581 60.40248 60.39916 60.53909 60.61554 60.72632 60.79573 60.85003 61.37322 63.82081 66.2746 68.40645 69.53363 69.88735 70.515 71.19931 71.88124 72.56114 72.64422 73.13884 73.57716 74.04099 74.43903 74.68205 74.97974 75.30349 75.59007 75.7268 75.88626 76.01606 76.13602 76.29056 76.42735 76.57832 76.7184 76.82561 76.94724 77.09818 77.20737 77.30868 77.46549 77.56629 77.69351 77.83125 77.94396 78.05021 78.178 78.27112 78.34325 78.40295 78.51046 78.58531 78.63062 78.7184 78.79335 78.89455 78.97464 79.05064 79.15806 79.21666 79.26527 79.33914 79.39741 79.42988 79.5115 79.54934 79.61038 79.64943 79.69511 79.70013 79.7567 79.79283 79.81802 79.8629 79.91885 79.93939 79.97116 80.0033 80.0337 80.04108 80.05934 80.05367 80.04569 80.02837 80.02754 80.02081 80.00647 80.03227 80.03114 80.00992 80.01622 80.00463 80.01125 80.00131 79.98389 79.97331 79.98914 79.94176 79.79759 79.51812 79.26368 78.71516 78.44138 77.76694 77.12544 76.73849 76.23071 75.64638 74.91689 74.62437 73.83339 73.41006 73.55092 73.94351 74.38922 74.97581 75.37727 75.69513 76.01598 76.32776 76.61442 76.92217 76.38124 75.23251 74.36158 73.32099 72.26093 71.49665 69.91006 68.87544 67.06274 66.01102 65.56928 64.70076 64.4415 64.5028 64.21597 64.17618 64.81355 65.41652 66.09344 66.72356 67.46386 67.71051 67.97552 67.97227 67.31651 64.79882 62.79073 62.65203 62.26188 61.37723 61.22194 60.41808 59.4381 59.03149 58.5296 57.85058 58.0182 57.15121 57.23241 57.42339 57.4726 57.91257 57.94439 57.93865 57.36462 57.42066 57.76749 58.29735 58.65683 59.05104 60.50417 60.74692 60.51224 60.51974 61.21202
33.39725 33.39199 33.3867 33.38135 33.37592 33.37043 33.36484 33.35872 33.35224 33.34573 33.3392 33.33264 33.32606 33.31944 33.3128 33.30612 33.2994 33.29266 33.28587 33.27903 33.27216 33.26524 33.25826 33.25124 33.24415 33.237 33.22979 33.22252 33.21518 33.20777 33.20028 33.19271 33.18506 33.1773 33.16944 33.16146 33.15333 33.14505 33.1366 33.12795 33.11904 33.10983 33.10024 33.09018 33.07953 33.0685 33.05917 33.05222 33.04818 33.04772 33.04875 33.05014 33.052 33.05442 33.05699 33.05946 33.06182 33.06408 33.0662 33.06824 33.07045 33.07289 33.07553 33.07824 33.08118 33.08445 33.08799 33.09174 33.09556 33.09946 33.1037 33.10827 33.11324 33.11857 33.12411 33.12998 33.13639 33.14353 33.15066 33.15724 33.16254 33.166 33.16839 33.17031 33.17169 33.17238 33.17188 33.16951 33.16431 33.15673 33.14842 33.14038 33.12947 33.11151 33.10368 33.10131 33.09711 33.1024 33.11107 33.11835 33.12537 33.13099 33.13221 33.13334 33.13841 33.12549 33.60861 36.46643 39.94917 41.81687 42.90455 43.2801 42.40712 43.30219 42.09283 42.14913 41.97043 41.79127 40.84967 42.77201 43.89872 45.25271 45.66799 45.99684 45.91636 46.57544 51.28698 53.25193 59.42727 60.77805 62.71001 66.32579 66.99626 67.47747 66.53722 65.21122 64.36349 63.6898 63.03618 62.01006 61.08567 60.19357 59.40303 59.00256 58.75075 58.77295 58.67025 58.49815 58.24318 58.04166 58.17756 58.22597 58.24784 58.14342 57.8995 58.08031 58.30249 58.80815 58.93293 58.93239 59.16473 59.33916 59.59921 59.82113 60.05178 60.31034 60.45353 60.58824 60.71223 60.78623 60.87315 60.96373 62.89232 66.33167 69.24345 71.04967 72.99129 73.29798 73.42782 73.65395 73.85751 74.00475 74.14832 74.29074 74.43852 74.62402 74.75197 74.90766 75.00442 75.16837 75.31183 75.42747 75.61273 75.73533 75.85816 76.01635 76.11011 76.25983 76.40046 76.53617 76.65 76.74946 76.90845 76.99885 77.134 77.29756 77.40607 77.53393 77.65717 77.77307 77.86686 77.95455 78.05273 78.12702 78.20232 78.28739 78.41817 78.43918 78.53 78.60848 78.69065 78.77885 78.85915 78.97611 79.02023 79.07151 79.1413 79.17638 79.20943 79.29768 79.35212 79.41116 79.43115 79.46152 79.46049 79.48405 79.54041 79.603 79.63884 79.65822 79.69586 79.73976 79.75365 79.75219 79.7732 79.76228 79.74086 79.73306 79.73921 79.73065 79.718 79.7149 79.71107 79.71899 79.67007 79.68233 79.6869 79.646 79.63188 79.60232 79.59476 79.56847 79.56963 79.5459 79.56828 79.57829 79.60397 79.66039 79.72595 79.64146 79.42354 78.87144 78.4209 77.67453 77.13894 76.69877 75.86448 75.97749 75.48896 74.82119 74.86359 75.18217 75.82239 76.21362 76.50902 76.80038 77.12793 77.49242 77.50423 76.5712 75.50803 74.55849 73.49206 72.41109 71.17286 70.04874 68.92376 68.00227 67.67351 67.21091 67.04819 67.30699 67.27487 67.01778 66.83698 67.48181 67.93127 68.06252 68.3745 68.36852 68.28645 66.76013 64.20478 64.0892 64.15067 63.81874 63.59753 62.48831 61.61823 61.14059 60.94499 60.08982 59.33443 59.80158 59.75584 59.54686 59.48224 59.84578 60.31505 60.56408 60.70907 60.71283 60.79943 61.1982 61.55249 61.38943 61.39876 61.46631 61.7641 61.85566 62.89832
33.41999 33.41472 33.40946 33.40414 33.39876 33.39331 33.38781 33.38217 33.37596 33.36963 33.36327 33.3569 33.35051 33.34409 33.33766 33.3312 33.32472 33.31821 33.31168 33.30511 33.29852 33.29189 33.28523 33.27854 33.2718 33.26503 33.25821 33.25136 33.24447 33.23753 33.23056 33.22353 33.21645 33.20931 33.20211 33.19484 33.18748 33.18005 33.17251 33.16487 33.15711 33.14922 33.14116 33.1329 33.12442 33.11565 33.10653 33.09695 33.08676 33.07737 33.07017 33.06565 33.06448 33.06554 33.06694 33.06879 33.07117 33.07369 33.07613 33.0785 33.08078 33.08299 33.08525 33.08779 33.09066 33.0937 33.09687 33.10027 33.10389 33.10778 33.11183 33.11599 33.12051 33.12534 33.13036 33.13558 33.14118 33.14741 33.1544 33.16129 33.16748 33.17228 33.17542 33.17787 33.17979 33.1811 33.18143 33.18035 33.17701 33.17052 33.16262 33.15472 33.14452 33.12243 33.10774 33.10284 33.09497 33.10132 33.11219 33.12284 33.13378 33.14115 33.1314 33.12292 33.12688 33.20301 33.77777 37.00627 40.1737 42.90219 43.27435 43.59857 44.46603 45.06035 44.83249 45.02047 44.82455 45.77767 44.87921 45.31084 45.51198 45.8722 45.82842 46.49347 50.00541 54.50382 55.4941 58.03745 62.7883 65.8187 66.52802 66.76528 67.28418 67.28421 65.70969 64.91602 64.37584 64.09069 64.08966 62.80481 61.92519 61.57649 60.2669 59.65197 59.25339 59.0961 58.79909 58.50962 58.27794 58.04202 57.95279 57.92299 57.88007 57.88097 57.98978 58.16003 58.38677 58.54802 58.71965 59.01766 59.2836 59.50973 59.71275 59.97091 60.18676 60.40382 60.5719 60.66743 60.78512 60.86596 60.75378 60.98193 64.06314 67.3028 69.56735 71.72182 72.89 73.06691 73.24369 73.39883 73.5769 73.73071 73.84815 73.97955 74.14032 74.27792 74.42632 74.55357 74.70066 74.85197 75.02347 75.15334 75.27843 75.45011 75.57671 75.67525 75.8389 75.97088 76.07272 76.22619 76.34296 76.45859 76.55945 76.67004 76.82433 76.98327 77.06904 77.24786 77.32561 77.53135 77.60423 77.66041 77.76653 77.78111 77.92496 77.89902 77.89663 78.11754 78.01379 78.14003 78.34058 78.42333 78.47289 78.75143 79.03713 78.90041 78.82546 78.61828 78.69674 78.5119 78.15378 77.94755 78.13335 78.13927 78.13494 78.13739 78.15183 78.38194 78.21448 78.38173 78.33621 78.277 78.37698 78.28834 77.84044 77.66805 78.25401 78.55659 78.56339 78.71643 78.80392 78.92781 79.33229 79.35407 79.40948 79.39912 79.37057 79.34087 79.33201 79.31603 79.30928 79.30386 79.26275 79.23836 79.25483 79.24844 79.28147 79.32156 79.3386 79.39199 79.45783 79.52084 79.58435 79.65672 79.77029 79.67505 79.51188 78.55299 78.19601 77.72388 76.95463 76.29105 76.23051 75.57123 76.01253 76.66593 77.06516 77.36819 77.73368 78.10294 78.38683 77.63061 76.78841 75.84795 74.65449 73.62065 72.01383 71.37354 70.86134 70.96633 70.346 69.94548 69.95317 70.38924 69.70415 69.16856 69.25727 68.89841 68.93458 68.69373 68.43924 67.45934 65.92908 65.35377 65.51865 64.55819 64.03357 63.50244 63.23195 62.98853 62.13943 61.51303 61.19706 61.31476 61.11186 61.01884 61.07404 61.59762 62.21154 62.7745 63.66239 63.66126 63.49909 63.41901 63.80546 64.21936 63.15464 62.71018 62.58521 63.03513 64.2094
33.44279 33.43752 33.43227 33.42698 33.42163 33.41623 33.41077 33.40527 33.39954 33.39335 33.38714 33.38091 33.37468 33.36842 33.36216 33.35587 33.34957 33.34325 33.33692 33.33056 33.32418 33.31778 33.31135 33.3049 33.29843 33.29193 33.28541 33.27886 33.27229 33.26569 33.25907 33.25241 33.24573 33.23901 33.23224 33.22544 33.21859 33.21168 33.20472 33.1977 33.19061 33.18344 33.1762 33.16887 33.16144 33.15388 33.14617 33.13828 33.13016 33.12175 33.11297 33.10369 33.09444 33.08722 33.08256 33.08109 33.08216 33.08363 33.08553 33.08797 33.09051 33.09301 33.09546 33.0979 33.10035 33.10304 33.10601 33.10917 33.1124 33.11593 33.11975 33.12382 33.12803 33.13244 33.13705 33.14184 33.1469 33.15241 33.15857 33.16541 33.17207 33.17794 33.18237 33.18544 33.18796 33.18989 33.19103 33.19104 33.18936 33.18523 33.1786 33.17066 33.16106 33.13693 33.11075 33.10144 33.0873 33.09744 33.11364 33.14049 33.17549 33.4972 35.34286 33.36632 33.28098 34.23095 35.78689 37.06773 39.46648 42.2288 43.39912 45.10913 45.84809 45.93344 45.94729 45.7142 45.91714 45.64714 45.5048 45.83705 45.81982 45.48977 46.88984 51.10568 54.87529 56.74416 58.47224 61.55702 64.88789 67.37286 66.95382 66.41335 66.26514 65.52656 65.05669 65.008 64.88071 64.81919 64.70526 63.79068 62.68385 60.88527 60.05841 59.79659 59.47708 59.21172 58.81773 58.49733 58.22088 58.08249 57.95733 57.90148 57.83765 57.85764 58.08078 58.26882 58.46418 58.65971 58.86239 59.09116 59.39045 59.61374 59.84501 60.06913 60.28221 60.49234 60.66365 60.93367 60.92439 60.7321 60.70688 61.28116 64.63313 67.5724 69.29639 71.25181 72.6134 72.75916 72.94947 73.0836 73.24197 73.39642 73.52708 73.71664 73.87883 73.98727 74.03979 74.17921 74.22482 74.23827 74.40684 74.50854 74.68525 74.86506 74.95364 75.11027 75.22556 75.33833 75.55394 75.74469 75.90659 76.14902 76.20464 76.36737 76.65012 76.64014 76.73602 76.90729 77.2171 77.47378 77.80992 77.83288 77.95168 78.09028 78.11978 78.25395 78.46622 78.32737 78.45808 78.57184 78.69447 78.72215 79.17057 79.61298 79.88086 80.12193 80.26337 80.33939 80.38636 80.41993 80.39629 80.34996 79.86304 79.24241 78.98357 78.92085 79.0491 79.21751 78.89497 78.81757 78.43259 77.84051 77.2758 77.03684 76.49852 75.28414 75.92828 75.68951 76.01477 75.60355 75.96363 75.73795 75.78583 75.73381 76.09408 76.29627 76.36361 76.70914 77.15893 77.43042 77.72728 78.07375 78.46128 78.81918 78.96083 78.97321 79.00217 79.03996 79.0984 79.11507 79.15437 79.22131 79.27551 79.32802 79.41606 79.4867 79.61261 79.69292 79.80025 79.92232 79.85744 79.44808 78.81924 78.1644 77.57793 76.65206 76.35861 77.22266 77.66463 77.99406 78.33765 78.67188 79.07314 78.63605 77.58724 76.57079 75.47746 74.39069 73.48719 72.28249 71.81269 71.20368 70.67622 70.51596 70.26843 69.96052 69.80521 69.60648 69.20524 68.87443 68.32138 67.59795 66.95664 66.44339 65.84364 65.4301 64.56732 64.03886 63.66256 63.38443 62.80208 62.18915 62.07252 61.86628 61.6411 61.71078 61.9569 62.65405 63.23102 63.30894 63.88505 64.34114 64.64522 64.58434 64.68682 64.1629 63.80344 63.62611 63.55578 63.5783 64.04992
33.46564 33.46036 33.45513 33.44986 33.44455 33.43918 33.43377 33.42831 33.42279 33.41694 33.41085 33.40475 33.39864 33.39252 33.38638 33.38024 33.37408 33.36792 33.36173 33.35554 33.34933 33.3431 33.33686 33.3306 33.32433 33.31804 33.31174 33.30543 33.2991 33.29274 33.28638 33.27999 33.27359 33.26717 33.26072 33.25424 33.24773 33.2412 33.23462 33.22801 33.22136 33.21467 33.20794 33.20115 33.19431 33.18742 33.18046 33.1734 33.16625 33.15897 33.15155 33.14394 33.1361 33.12796 33.1194 33.11056 33.10346 33.09891 33.09754 33.09872 33.10032 33.10241 33.105 33.10765 33.1103 33.11293 33.11553 33.11824 33.12123 33.1245 33.12791 33.13157 33.13555 33.13979 33.14407 33.14851 33.15317 33.15818 33.16368 33.16985 33.17656 33.18304 33.18871 33.1929 33.19607 33.19873 33.20068 33.20174 33.20158 33.19958 33.19553 33.19074 33.18394 33.15786 33.1134 33.09146 33.06531 33.06845 33.23148 33.11589 33.14229 35.3553 36.36569 36.71833 36.99876 37.70327 39.45303 40.76286 41.96788 43.75355 44.86349 45.66903 46.46125 46.52375 46.81409 46.15664 45.71056 45.8345 45.79415 45.80989 45.04631 44.46515 46.65609 52.21127 56.8018 59.36194 60.42215 62.33709 64.72484 66.26815 67.25607 65.83408 65.12437 65.02622 65.05423 64.93864 64.96677 65.17181 65.06444 62.67208 60.87335 60.54316 60.30936 60.00932 59.66469 59.36045 58.81471 58.56979 58.45034 58.21298 57.91321 57.85844 57.87455 58.03615 58.1833 58.34225 58.55478 58.73732 58.88863 59.10682 59.33054 59.58669 59.85283 60.19335 60.47384 60.61618 60.77663 60.87594 60.89212 60.62543 60.69019 61.8001 65.21491 68.40371 69.31937 69.57317 72.32896 72.27183 72.18913 72.28222 72.4135 72.79388 72.92413 73.1149 73.44173 73.67668 73.8335 74.02305 74.16597 74.33003 74.4527 74.6386 74.81267 74.94186 75.1172 75.23849 75.40231 75.55745 75.71111 75.92565 76.08136 76.26167 76.46476 76.62617 76.79018 77.02454 77.18921 77.36649 77.57777 77.74651 77.89652 78.01458 78.1554 78.27414 78.37472 78.631 78.64119 78.59348 78.78387 78.99475 79.17213 79.36548 79.83717 80.07407 80.40445 80.67039 80.98562 81.25142 81.35273 81.37877 81.43225 81.34641 81.26462 80.97391 80.66208 80.53607 80.41524 80.24485 80.38113 80.36285 80.15746 79.48815 78.63862 77.68446 77.0202 76.4411 75.6002 75.15325 74.68449 74.48824 74.45425 74.237 74.13058 74.2326 74.28506 74.24689 74.28745 74.45562 74.52449 74.53867 74.59012 75.21035 75.02941 75.35802 75.78082 76.216 76.63253 77.22553 77.67117 78.19584 78.66045 78.95903 79.00294 79.07942 79.13387 79.21841 79.3121 79.38772 79.48235 79.5961 79.70276 79.82764 79.94876 80.13262 80.2607 79.93649 79.1597 78.35511 77.49899 77.58186 78.27383 78.58235 78.91738 79.2536 79.60937 79.39409 78.55479 77.62128 76.72925 75.93754 74.39375 73.17452 71.30937 70.7937 70.34703 70.40974 70.05784 69.8094 69.55917 69.13707 68.7316 68.67199 68.90221 67.76457 67.27448 66.97837 65.81666 65.14689 64.53455 64.53152 63.9195 63.56991 63.06598 62.57881 62.27464 62.14405 62.56118 63.5032 64.2238 64.75838 65.04586 64.59789 64.95044 64.853 64.71293 64.50667 64.23344 63.99904 63.81735 63.95857 63.92577
33.48853 33.48325 33.47803 33.47277 33.46748 33.46215 33.45678 33.45136 33.4459 33.44035 33.43444 33.42844 33.42243 33.41642 33.4104 33.40437 33.39833 33.39229 33.38623 33.38017 33.3741 33.36802 33.36192 33.35582 33.3497 33.34358 33.33745 33.33131 33.32517 33.31901 33.31284 33.30666 33.30047 33.29427 33.28804 33.28181 33.27555 33.26928 33.26298 33.25666 33.25032 33.24395 33.23756 33.23114 33.22469 33.21821 33.21169 33.20514 33.19853 33.19187 33.18513 33.17832 33.17141 33.16438 33.15719 33.14982 33.14219 33.13422 33.12586 33.11905 33.11485 33.11397 33.11536 33.11721 33.11962 33.12239 33.12514 33.12787 33.13054 33.13332 33.13643 33.13979 33.14331 33.14714 33.15126 33.1555 33.15981 33.16443 33.16945 33.17501 33.18117 33.18789 33.19432 33.19989 33.20402 33.20743 33.21035 33.21253 33.21387 33.21396 33.21262 33.2115 33.21068 33.18911 33.12998 33.08677 33.05081 34.79949 34.62266 36.28152 35.69037 38.45095 39.19514 40.50653 41.18042 41.38951 42.69694 44.31683 44.53881 45.75949 46.16098 46.20668 46.05047 46.43896 46.02333 45.81619 45.81061 46.25403 47.18057 46.0051 44.89855 44.77709 47.54626 51.99012 56.7043 60.24086 61.69146 62.50619 64.50105 65.30827 65.09436 64.63192 65.05769 65.07889 65.04434 64.99317 65.39812 63.10062 61.3085 61.32214 61.10854 60.82878 60.55001 60.23878 59.85468 63.26537 64.55704 61.70732 59.12007 58.42572 58.19118 57.93959 57.93646 58.11033 58.22982 58.49495 58.8255 58.99293 58.96238 59.0663 59.43489 59.8166 60.14522 60.39428 60.44324 60.6015 60.71672 60.77053 60.74038 60.62978 60.67905 62.28314 65.55766 68.4159 69.64323 71.87204 72.02679 72.1339 72.29632 72.47211 72.66782 72.79517 72.96669 73.10376 73.24374 73.40347 73.53514 73.68919 73.85545 74.00065 74.17612 74.30357 74.47878 74.63984 74.77527 74.91112 75.1097 75.2514 75.40744 75.59766 75.75922 75.95268 76.1104 76.29357 76.49838 76.68918 76.86433 77.0956 77.28403 77.4725 77.66 77.87392 78.06969 78.26041 78.44443 78.65338 78.86054 79.06237 79.26938 79.41669 79.4648 79.5506 79.76611 80.0206 80.39026 80.99638 81.50204 81.6759 81.75489 81.83651 82.08648 82.16657 82.15061 82.1794 81.95901 81.73225 81.44935 81.30145 81.56609 81.51111 81.37995 80.89158 79.88695 78.68687 77.9953 77.19009 76.66753 76.23574 75.53569 75.15204 74.8436 74.74408 74.71888 74.52861 74.51464 74.65765 74.53194 74.47028 74.49039 74.4254 74.48325 74.48058 74.5144 74.58069 74.56502 74.72323 74.86152 74.67619 74.60738 74.88734 75.30796 75.68484 76.25187 76.80241 77.57174 78.3149 78.97465 79.08083 79.24237 79.3348 79.44778 79.56042 79.69528 79.83739 79.9529 80.12756 80.29842 80.48071 80.52292 80.20631 79.18887 78.75183 78.85025 79.18024 79.51128 79.83892 80.16135 80.028 79.39882 77.91676 76.81868 75.76089 74.48426 73.14137 72.05718 71.92633 71.60871 71.76101 70.97555 70.05968 69.89873 69.27744 68.85759 68.22381 67.41072 66.97447 66.05517 65.88706 65.42921 64.61667 64.07243 63.7248 63.29335 62.99559 63.23206 63.27544 63.51009 64.03962 64.7354 65.01423 65.20012 65.471 65.6616 66.03551 66.24277 66.02135 65.3905 65.55228 64.26942 64.75912 64.88972
